ply
format ascii 1.0
element vertex 1266
property float x
property float y
property float z
property uchar red
property uchar green
property uchar blue
end_header
0.642657 0.825518 4.166990 116 115 113
0.665237 0.770096 4.310827 97 97 97
0.643719 0.802908 4.171556 100 99 97
0.643351 0.818838 4.167566 126 124 125
0.643357 0.822100 4.166681 105 104 102
0.771887 -0.171685 4.992416 101 101 99
0.771314 -0.161482 4.988550 85 85 83
0.648961 0.787992 4.197081 96 94 95
0.644478 0.819203 4.166416 120 118 119
0.772345 -0.183850 4.991857 103 102 100
0.644983 0.813555 4.165059 137 135 136
0.678097 0.769417 4.377078 101 100 98
0.645488 0.811992 4.164968 126 125 123
0.645864 0.809349 4.165340 104 104 104
0.646131 0.820699 4.166257 117 116 114
0.776290 -0.593394 5.014099 99 98 96
0.645975 0.807100 4.164906 86 86 86
0.646343 0.814389 4.166117 120 118 119
0.647785 0.789127 4.173197 99 98 96
0.646938 0.802971 4.166532 90 90 88
0.646598 0.809319 4.165290 98 98 98
0.646866 0.812070 4.165547 108 107 105
0.651495 0.785634 4.193047 99 97 98
0.646523 0.822411 4.159257 122 121 119
0.609338 0.863385 3.913844 102 102 102
0.771243 -0.719654 4.953204 81 81 81
0.670691 0.751195 4.305560 106 105 103
0.649615 0.788444 4.169515 102 101 99
0.647804 0.819765 4.158490 110 109 107
0.649974 0.803090 4.166112 95 94 92
0.649046 0.813948 4.162592 120 118 119
0.648403 0.823793 4.158471 118 117 115
0.649537 0.815853 4.160824 120 119 117
0.644224 0.830690 4.126572 104 103 101
0.636091 0.933287 4.079136 98 98 98
0.655429 0.790647 4.196705 111 110 108
0.650048 0.811166 4.162066 108 106 107
0.650731 0.804324 4.165706 98 97 95
0.651316 0.806031 4.165366 108 108 106
0.650339 0.815466 4.159830 122 121 119
0.611948 0.862896 3.915916 116 116 116
0.651464 0.807865 4.164168 119 119 119
0.649752 0.822170 4.155178 100 99 97
0.757000 0.468079 4.836225 82 82 80
0.653369 0.799797 4.172685 100 98 99
0.650385 0.825685 4.155976 116 115 113
0.775191 -0.718852 4.953827 97 96 94
0.651093 0.819495 4.157018 117 116 114
0.676180 0.769322 4.313031 100 98 99
0.758606 0.467054 4.835762 89 88 84
0.651682 0.822943 4.154411 111 110 108
0.653868 0.803136 4.163975 105 104 102
0.653746 0.808322 4.163610 115 113 114
0.654606 0.801618 4.162966 109 108 106
0.653188 0.827269 4.155187 91 91 89
0.761254 0.466037 4.837486 86 85 83
0.678146 0.762135 4.312783 96 94 95
0.678132 0.763542 4.312634 93 91 92
0.654930 0.802666 4.162840 101 100 98
0.653303 0.812029 4.152566 107 106 104
0.656771 0.801906 4.172750 94 93 91
0.654753 0.819568 4.152244 100 99 97
0.735986 0.589024 4.663830 91 90 88
0.652486 0.826464 4.136100 112 111 109
0.656320 0.813348 4.153981 108 107 105
0.656082 0.822418 4.152583 111 110 108
0.792403 -0.523913 5.018874 88 88 86
0.763778 0.479828 4.824024 88 87 85
0.659731 0.801438 4.161594 108 108 106
0.677902 0.690736 4.272099 90 90 88
0.686287 0.752076 4.322496 94 93 91
0.686402 0.755496 4.320604 99 98 96
0.661774 0.788044 4.164726 110 106 107
0.668860 0.770298 4.202810 101 101 101
0.668772 0.776848 4.202232 122 122 122
0.658132 0.806489 4.135808 114 112 113
0.658677 0.802355 4.135719 108 106 107
0.658666 0.822358 4.134568 115 114 112
0.658731 0.823414 4.135383 110 108 109
0.799272 -0.662687 5.022867 101 101 101
0.663695 0.788601 4.164308 107 105 106
0.658883 0.816425 4.133922 125 124 122
0.687649 0.778249 4.309894 94 94 94
0.646023 0.837486 4.050222 100 100 98
0.793621 -0.692539 4.976765 86 88 87
0.664794 0.787874 4.163054 97 97 95
0.821673 -0.453230 5.153151 99 99 97
0.683677 0.712230 4.280001 103 102 100
0.664834 0.790835 4.163140 96 96 96
0.660341 0.797487 4.134926 105 104 102
0.794610 -0.690975 4.976734 85 85 83
0.660768 0.805943 4.135153 100 99 97
0.661305 0.800396 4.134255 107 105 106
0.796479 -0.692769 4.976852 85 85 85
0.748137 0.591089 4.673131 96 92 91
0.692556 0.750251 4.328054 102 102 100
0.693155 0.752958 4.327470 112 111 109
0.693805 0.761798 4.332128 103 101 102
0.692726 0.781202 4.324479 96 96 96
0.657258 0.824946 4.102579 110 108 109
0.662623 0.799231 4.131517 102 100 101
0.826403 -0.454812 5.153255 94 92 93
0.636006 0.883248 3.959454 105 105 105
0.696438 0.750619 4.331216 105 105 103
0.660399 0.818986 4.107061 119 118 116
0.678207 0.790086 4.215974 97 97 95
0.697402 0.758596 4.329801 105 104 102
0.792620 -0.704508 4.920952 83 83 81
0.672028 0.786385 4.167998 110 110 110
0.832497 -0.477388 5.167629 86 86 86
0.668972 0.810715 4.147375 92 91 89
0.810900 -0.524759 5.016457 93 91 92
0.624090 0.829590 3.850037 93 93 93
0.691957 0.714208 4.267358 101 101 99
0.804560 -0.693014 4.960636 93 93 93
0.837643 -0.464993 5.164723 110 110 108
0.673090 0.801039 4.142780 103 101 102
0.671543 0.814215 4.130026 108 107 105
0.806581 -0.691076 4.959400 84 84 82
0.843609 -0.480418 5.187938 93 93 93
0.805316 -0.702412 4.948418 88 88 88
0.664960 0.830756 4.077731 100 98 99
0.847792 -0.461000 5.178972 92 90 91
0.847930 -0.463899 5.167389 111 110 108
0.856206 -0.458318 5.177635 97 97 95
0.820321 -0.651525 4.957719 92 92 92
0.721851 0.787811 4.355848 103 103 101
0.857586 -0.459554 5.175158 103 103 103
0.816198 -0.706496 4.915696 84 84 84
0.835339 -0.550364 5.032163 97 96 94
0.774058 -0.790374 4.649403 91 89 90
0.860690 -0.459383 5.179671 96 96 96
0.722412 0.782705 4.333072 106 105 103
0.862260 -0.459526 5.179796 96 96 94
0.717624 0.798976 4.303599 120 119 117
0.863956 -0.462342 5.182133 96 96 96
0.728467 0.777719 4.359585 103 103 103
0.714052 0.714006 4.271868 103 103 103
0.825430 -0.627876 4.938003 80 79 77
0.722461 0.811703 4.304658 109 107 108
0.733871 0.777441 4.358300 97 95 96
0.734622 0.772459 4.359467 108 106 107
0.875071 -0.401130 5.194119 96 94 95
0.730061 0.781389 4.331100 112 112 110
0.726838 0.808814 4.310743 103 102 100
0.689904 0.837839 4.081110 107 107 107
0.727460 0.729520 4.297574 96 96 94
0.736732 0.806592 4.340951 118 117 115
0.731553 0.807111 4.299513 113 111 112
0.739462 0.805070 4.340532 107 107 107
0.732475 0.810867 4.299731 110 109 107
0.844049 -0.656918 4.959534 80 79 77
0.733194 0.811855 4.298035 98 97 95
0.669574 0.901834 3.921942 114 114 114
0.737524 0.804823 4.320104 112 111 109
0.734217 0.809293 4.299201 107 107 107
0.741892 0.796340 4.334544 113 111 112
0.736474 0.734797 4.303903 100 99 97
0.735191 0.810370 4.291507 105 103 104
0.735253 0.816222 4.291504 101 101 99
0.736892 0.809227 4.298337 102 101 99
0.842575 -0.667250 4.908603 95 95 93
0.742844 0.802787 4.318081 126 126 126
0.843816 -0.665493 4.907978 87 87 87
0.756296 0.779810 4.378216 89 87 88
0.741230 0.814714 4.291708 97 95 96
0.743052 0.809415 4.295104 103 103 101
0.748422 0.781210 4.319871 81 81 81
0.742699 0.816672 4.289551 93 92 90
0.749405 0.781344 4.317014 95 93 94
0.745412 0.807104 4.292433 112 110 111
0.881191 0.258356 5.068863 88 88 86
0.745123 0.818274 4.287069 99 97 98
0.756594 0.766983 4.347947 102 101 99
0.746587 0.805227 4.291417 109 107 108
0.746257 0.818416 4.286547 101 99 100
0.870845 0.346178 4.999561 85 85 83
0.748378 0.793998 4.297445 104 102 103
0.748177 0.798822 4.293337 97 95 96
0.857143 0.524538 4.912502 84 83 81
0.747407 0.808889 4.283753 101 101 101
0.747147 0.813856 4.284521 102 102 102
0.874217 0.335906 5.008705 93 91 92
0.873017 0.351463 5.003331 96 96 94
0.867554 0.565549 4.969463 98 97 95
0.761120 0.779985 4.356689 105 103 104
0.748231 0.811088 4.283972 96 96 96
0.874653 0.353834 5.004673 93 93 93
0.734887 0.817834 4.204516 103 101 102
0.753686 0.781331 4.310431 116 114 115
0.749519 0.808599 4.281965 99 99 99
0.876923 0.328162 5.004158 90 89 87
0.725102 0.828916 4.135388 106 104 105
0.897360 0.322091 5.113235 87 86 84
0.736103 0.841621 4.187869 112 111 109
0.735771 0.842747 4.182884 106 104 105
0.749703 0.725157 4.259971 110 109 107
0.752623 0.805928 4.274481 107 105 106
0.728408 0.838445 4.132734 112 110 111
0.737657 0.827852 4.181787 102 101 99
0.753740 0.803815 4.270359 102 102 102
0.899657 0.294318 5.094376 87 87 85
0.739471 0.834591 4.182812 101 99 100
0.763089 0.667647 4.312448 106 105 103
0.739706 0.827507 4.182574 106 105 103
0.756458 0.736001 4.271270 101 99 100
0.901631 0.314737 5.081688 89 89 89
0.885444 0.339010 4.991574 81 81 81
0.886089 -0.597313 5.003446 91 89 90
0.902469 0.318190 5.082291 81 81 81
0.892284 0.336364 5.024136 82 82 82
0.766630 0.781560 4.316351 105 104 102
0.902771 0.308653 5.080523 84 84 82
0.768406 0.755193 4.322961 99 99 97
0.767474 0.776842 4.313893 94 93 91
0.904326 0.317968 5.081177 93 93 93
0.772552 0.768312 4.341210 96 95 93
0.767908 0.779519 4.314640 102 101 99
0.768320 0.783740 4.315817 109 107 108
0.889037 0.346064 4.988562 80 80 78
0.884940 0.402435 4.959806 94 94 94
0.770374 0.786893 4.317476 103 102 100
0.760973 0.720639 4.259467 103 101 102
0.765554 0.807040 4.271222 93 92 90
0.900326 -0.584994 5.033047 92 92 92
0.765956 0.737415 4.271057 88 87 85
0.893212 0.594868 4.970129 99 98 96
0.770065 0.747709 4.282356 100 100 98
0.903988 -0.598287 5.030592 103 102 100
0.910224 -0.581059 5.055506 103 101 102
0.774173 0.775126 4.284271 111 110 108
0.774508 0.773930 4.284442 101 100 98
0.771848 0.753411 4.266778 102 101 99
0.775471 0.771720 4.283420 96 95 93
0.775157 0.747565 4.274808 100 98 99
0.778483 0.773126 4.283351 98 97 95
0.779425 0.788890 4.289339 97 96 94
0.778747 0.770607 4.282775 105 104 102
0.778702 0.779319 4.281492 91 90 88
0.765782 0.828818 4.207031 112 111 109
0.775773 0.800876 4.265104 95 93 94
0.780192 0.781119 4.280406 99 98 96
0.778140 0.742604 4.262724 100 100 100
0.782434 0.777828 4.282058 108 106 107
0.781557 0.782422 4.278719 96 96 94
0.780937 0.752584 4.265818 99 98 96
0.794964 0.773876 4.342200 102 101 99
0.794711 0.775195 4.341695 105 104 102
0.783958 0.779908 4.282485 94 93 91
0.922850 -0.584757 5.050901 83 83 83
0.925011 -0.583283 5.062706 100 100 98
0.947315 0.720749 5.166275 91 90 88
0.784288 0.776273 4.277220 84 82 83
0.773269 0.813718 4.215063 94 92 93
0.784607 0.785660 4.276436 102 100 101
0.782900 0.748309 4.265554 90 90 88
0.797162 0.771833 4.341305 103 102 100
0.787470 0.785059 4.274602 95 93 94
0.783693 0.807874 4.256214 95 94 92
0.930815 -0.580133 5.063113 108 106 107
0.788705 0.781549 4.273896 96 95 93
0.956455 0.721928 5.169824 94 93 89
0.788298 0.801654 4.261026 98 96 97
0.929201 -0.583432 5.028439 98 98 98
0.788715 0.804806 4.261642 93 93 93
0.789015 0.800855 4.259913 106 104 105
0.790239 0.801516 4.261114 100 98 99
0.790107 0.803065 4.260719 92 90 91
0.788334 0.816866 4.241965 99 99 97
0.781752 0.849516 4.198526 106 105 103
0.793114 0.801107 4.259450 97 95 96
0.967690 0.727552 5.192899 95 94 92
0.959195 0.759579 5.131376 106 105 103
0.947768 -0.585690 5.074202 95 94 92
0.786985 0.860281 4.200442 108 106 107
0.947620 -0.580178 5.067154 106 105 103
0.972636 0.723963 5.191629 89 85 82
0.962138 0.690659 5.126253 97 96 94
0.797010 0.815953 4.247571 101 100 98
0.797097 0.816586 4.247446 88 87 85
0.798654 0.823547 4.253029 100 100 100
0.799315 0.823728 4.253322 108 106 107
0.951251 -0.585168 5.069455 103 102 100
0.968345 0.749136 5.149399 118 117 115
0.811916 0.751492 4.317506 104 102 103
0.972739 0.739532 5.169250 105 104 102
0.969537 0.758164 5.141770 113 112 110
0.968593 0.758649 5.134498 116 112 109
0.810476 0.801807 4.298235 95 95 95
0.794546 0.839769 4.212833 99 97 98
0.952678 -0.578530 5.060676 91 91 89
0.815321 0.788085 4.322001 84 83 81
0.970448 0.754300 5.141707 115 114 110
0.815970 0.792947 4.322708 104 103 101
0.969854 0.759840 5.133152 111 107 104
0.817590 0.797089 4.325502 106 104 105
0.977460 0.745570 5.162517 102 101 99
0.981607 0.687408 5.180372 97 95 96
0.978982 0.703973 5.169952 103 102 100
0.956142 -0.590579 5.050014 90 88 89
0.968352 0.395321 5.101036 96 94 95
0.980752 0.744117 5.164149 111 110 108
0.977740 0.754501 5.147855 118 117 115
0.808556 0.825869 4.259059 103 102 100
0.950804 0.364980 5.003385 88 88 88
0.950615 0.366303 5.003911 84 84 84
0.981203 0.741017 5.162759 100 99 97
0.969269 0.395020 5.100325 85 83 84
0.985787 0.731625 5.181313 105 101 98
0.981936 0.739253 5.161909 104 103 101
0.977029 0.760792 5.134562 104 100 99
0.821829 0.775918 4.319064 113 111 112
0.953843 0.370074 5.007266 94 94 94
0.980806 0.757954 5.145646 89 88 86
0.979053 0.763171 5.134658 107 103 100
0.823091 0.775609 4.318300 120 118 119
0.822354 0.788269 4.314883 115 114 112
0.992564 0.729944 5.202347 95 94 90
0.822693 0.784094 4.313707 92 90 91
0.964107 -0.573793 5.061785 91 91 89
0.821633 0.808827 4.304260 104 102 103
0.985256 0.741776 5.158604 103 99 98
0.825075 0.799612 4.321615 121 121 121
0.964992 -0.576373 5.060083 101 100 98
0.974163 0.396556 5.099367 89 89 89
0.986129 0.745017 5.160431 93 92 90
0.983831 0.756527 5.147422 91 90 88
0.824697 0.783082 4.314413 90 89 87
0.992725 0.723446 5.188027 96 92 89
0.982604 0.760743 5.136804 98 97 95
0.966116 -0.575719 5.057486 102 101 99
0.993214 0.721585 5.187402 95 91 88
0.826012 0.789266 4.313969 105 103 104
0.966403 -0.563896 5.057284 102 102 102
0.989053 0.747467 5.163120 115 111 110
0.989301 0.748486 5.164648 116 115 113
0.988945 0.744143 5.159718 87 86 84
0.826539 0.787918 4.313894 91 90 88
0.826430 0.790965 4.314249 108 106 107
0.824605 0.808592 4.302688 102 100 101
0.968223 -0.565174 5.060476 96 96 94
0.815987 0.814915 4.253586 90 88 89
0.968915 -0.571238 5.059522 103 102 100
0.989803 0.754641 5.157875 113 112 110
0.986075 0.757599 5.137392 89 88 84
0.985455 0.762891 5.135515 94 93 91
0.981898 0.770558 5.116631 106 105 103
0.827426 0.784200 4.312133 107 106 104
0.969480 -0.572947 5.059157 98 97 95
0.828793 0.776623 4.318359 115 114 112
0.828462 0.789529 4.314633 102 101 99
0.993319 0.740028 5.169515 107 106 104
0.991647 0.748828 5.160957 99 98 96
0.991544 0.751111 5.160664 108 104 103
0.828338 0.782542 4.312299 105 104 102
0.828633 0.787959 4.313620 105 105 103
1.001951 0.667821 5.211689 82 82 80
0.991932 0.741855 5.156438 108 104 101
0.991694 0.755765 5.156502 117 116 114
0.828327 0.793505 4.306040 95 95 95
0.973440 0.435049 5.058254 94 94 94
0.994929 0.490247 5.168447 83 83 83
0.816167 0.920430 4.234413 106 104 105
0.976303 0.444765 5.066236 41 43 42
0.994775 0.753186 5.164358 111 110 108
0.830488 0.782969 4.310548 108 106 107
0.830666 0.786803 4.311943 106 105 101
0.994400 0.748967 5.157628 119 117 118
0.818427 0.907833 4.242891 104 102 103
0.831786 0.785066 4.311303 101 100 98
0.831831 0.787649 4.312697 103 103 101
1.002143 0.726238 5.191407 102 101 97
0.987027 0.771197 5.114735 98 97 95
0.830893 0.792124 4.305814 107 106 104
0.820099 0.910393 4.243274 109 107 108
0.994997 0.760805 5.149580 95 94 90
0.988342 0.776423 5.114739 104 103 101
0.833142 0.783048 4.310429 117 115 116
0.831942 0.794208 4.305442 102 101 99
0.820806 0.909615 4.242560 102 100 101
0.975802 -0.560781 5.052109 104 104 104
1.002964 0.664542 5.184015 104 100 97
0.833527 0.788539 4.307687 108 107 105
1.000167 0.745245 5.149416 104 103 101
1.015498 0.675422 5.227750 107 103 102
0.833445 0.902091 4.287319 102 100 101
0.999157 0.738477 5.140431 117 113 112
0.999214 0.741529 5.137170 112 111 109
1.018428 0.670566 5.235144 102 101 99
0.983133 0.763091 5.050854 100 99 97
1.000745 0.739291 5.134757 103 102 100
0.834597 0.849544 4.282927 105 103 104
0.839893 0.778684 4.308915 110 109 107
1.011921 0.426897 5.185256 99 99 97
0.835964 0.861625 4.282581 103 102 100
0.835177 0.908598 4.277733 110 109 107
0.996775 0.744103 5.105592 108 102 102
0.825337 0.959929 4.222032 93 95 94
0.984521 0.752649 5.033577 105 104 102
0.839192 0.797852 4.290060 109 107 108
0.837430 0.879083 4.275584 107 105 106
1.018275 0.700801 5.199701 111 110 106
0.838186 0.880470 4.276593 102 100 101
0.986086 0.752117 5.031488 110 109 107
0.840891 0.799524 4.290442 98 98 96
0.839611 0.861495 4.281917 108 106 107
0.993739 0.742703 5.065242 101 100 98
0.986961 0.758335 5.031609 110 109 107
0.844618 0.811999 4.303821 102 101 99
0.992501 0.740476 5.052046 111 107 106
0.988309 0.752337 5.030146 92 91 89
0.989716 0.762273 5.036984 106 105 103
1.024197 0.737954 5.209557 104 103 101
0.988483 0.757360 5.029384 114 112 113
0.845792 0.813626 4.302898 99 98 96
0.848641 0.835957 4.315226 100 100 100
0.853339 0.796976 4.338501 109 107 108
0.849110 0.832688 4.316851 103 101 102
0.768896 0.848317 3.909626 111 109 110
0.990405 0.749588 5.030654 94 93 91
0.849418 0.836429 4.315574 98 98 98
0.999729 0.731165 5.072955 107 103 102
0.989932 0.767937 5.024464 88 87 85
0.851857 0.830878 4.318829 97 97 95
0.851632 0.834073 4.317142 109 108 106
0.844958 0.903154 4.281529 96 94 95
0.998461 0.754951 5.045811 99 98 96
1.028128 0.414111 5.189037 97 97 95
1.027487 0.418523 5.182494 78 78 76
1.000864 0.750807 5.046865 106 105 103
1.001016 0.752622 5.047607 103 101 102
1.002073 0.750957 5.047692 99 98 96
0.859072 0.797591 4.325171 108 106 107
0.859177 0.794930 4.325199 101 100 98
1.035817 0.488143 5.211853 58 60 59
1.031337 0.667950 5.188646 99 98 96
1.005399 0.752064 5.048234 104 103 101
1.008754 0.750404 5.050771 102 100 101
0.859521 0.819869 4.304595 97 95 96
0.860914 0.811964 4.308663 105 103 104
1.008947 0.767843 5.045002 98 97 93
1.007562 0.769257 5.039676 99 98 96
1.008849 0.753265 5.042426 101 100 98
0.867393 0.776149 4.330764 104 103 101
1.055760 0.501552 5.270657 79 79 79
1.038982 0.673247 5.184251 98 97 95
1.011190 0.746029 5.046565 103 102 100
1.010824 0.761696 5.043287 125 124 122
0.863033 0.807754 4.307108 100 98 99
1.062450 0.334354 5.297856 94 93 91
1.011163 0.753646 5.042107 106 106 104
0.863405 0.815049 4.306474 104 102 103
1.040781 0.672568 5.184382 91 90 88
1.012047 0.753426 5.040869 103 103 101
1.012392 0.756110 5.041793 124 123 121
0.864912 0.811132 4.307642 107 105 106
1.041591 0.672338 5.183452 97 96 94
1.014339 0.766274 5.047197 118 117 115
0.871909 0.782707 4.337228 99 97 98
1.067382 0.359951 5.305992 100 100 98
1.014195 0.761098 5.040823 115 114 112
1.014303 0.762596 5.041373 108 107 105
1.015193 0.772261 5.047220 103 102 100
1.069733 0.363528 5.306192 89 89 87
1.016356 0.755596 5.035710 117 117 115
1.016719 0.759886 5.036907 112 112 110
1.075724 0.377488 5.314976 85 85 85
1.056570 0.706061 5.211943 102 98 95
1.054284 0.665542 5.199844 96 95 91
1.054544 0.673878 5.201635 96 95 93
1.056612 0.698138 5.210658 99 95 94
1.057048 0.700197 5.211567 99 98 96
1.056822 0.704031 5.212162 87 83 80
1.057008 0.707528 5.212452 110 106 103
0.865744 0.832603 4.270332 108 106 107
1.057747 0.708961 5.212595 105 101 98
1.035342 0.704890 5.097028 93 92 90
0.873129 0.803347 4.295940 104 102 103
1.058065 0.695903 5.205434 105 104 102
1.059402 0.703223 5.203383 98 97 95
0.877691 0.894622 4.305835 112 110 111
1.060561 0.691577 5.203901 97 96 92
0.878412 0.892932 4.306287 109 107 108
0.875632 0.810048 4.292262 104 104 104
1.061787 0.696488 5.201492 103 99 98
1.061719 0.698945 5.201352 99 98 96
1.032151 0.757762 5.054392 105 104 102
0.902948 0.717142 4.417249 101 100 98
0.876178 0.802828 4.289691 103 103 101
0.876750 0.798721 4.288538 107 105 106
1.065109 0.695146 5.199615 100 99 97
1.065809 0.697157 5.199371 99 98 96
0.904144 0.694885 4.403857 117 116 114
0.881107 0.842906 4.292029 102 100 101
1.067712 0.697909 5.198367 90 89 87
0.880395 0.801959 4.286351 112 110 111
1.067446 0.689139 5.194660 101 100 96
0.898107 0.800764 4.368369 118 117 115
0.880869 0.797758 4.286828 100 98 99
0.849602 0.882840 4.132803 101 99 100
1.068720 0.693495 5.193371 87 86 84
0.881636 0.838674 4.285062 104 103 101
0.883114 0.850028 4.292673 102 102 102
1.069574 0.690720 5.194756 103 102 100
1.069452 0.699683 5.196320 91 90 88
0.899998 0.793474 4.368902 111 110 108
0.900229 0.789086 4.369331 104 102 103
0.871740 0.838827 4.229664 88 88 88
0.898290 0.794401 4.355491 100 98 99
0.903395 0.784436 4.370100 109 108 104
0.829296 0.852869 4.008391 101 100 98
0.829697 0.847126 4.007279 110 110 110
0.902305 0.793581 4.356048 102 102 100
0.829158 0.833747 3.998745 106 104 105
0.875525 0.827281 4.220735 95 94 92
0.831476 0.843899 4.009005 102 100 101
1.047154 0.761142 5.044211 97 96 94
1.048993 0.753014 5.050518 105 104 102
1.044908 0.766698 5.027071 87 85 86
1.050291 0.754311 5.049565 95 94 92
0.907405 0.782344 4.360352 101 101 101
0.834012 0.842342 4.008934 111 109 110
0.908726 0.790119 4.361776 110 108 109
0.834885 0.838546 4.006403 115 115 115
0.893444 0.847731 4.284060 100 99 97
1.044408 0.745292 5.005595 122 121 119
0.911068 0.790029 4.361509 117 116 114
0.837042 0.841499 4.007052 103 103 103
0.911224 0.791361 4.360586 108 107 105
0.910416 0.796626 4.355318 113 112 108
0.837302 0.839398 4.006797 115 115 115
0.838047 0.837458 4.006565 109 109 109
0.912593 0.787226 4.362556 107 106 104
0.839028 0.830179 4.009111 114 112 113
1.047081 0.756354 5.003145 101 100 98
0.912628 0.793320 4.359787 98 96 97
1.048546 0.751013 5.007274 110 109 107
0.914435 0.787873 4.361268 105 105 103
0.899288 0.810966 4.288305 105 104 102
0.841383 0.828170 4.009010 110 109 107
1.050756 0.751608 5.005372 99 98 96
0.915376 0.788889 4.360409 104 104 102
0.841358 0.829709 4.009222 111 111 111
0.841441 0.832405 4.008969 90 90 90
0.857700 0.831956 4.083800 113 112 110
0.842461 0.862305 4.011088 120 118 119
1.116710 0.653513 5.315013 109 105 102
0.878267 0.814455 4.177256 98 97 95
0.842358 0.832625 4.006597 98 98 96
0.842665 0.835230 4.007025 91 89 90
0.842606 0.839470 4.006974 117 116 114
0.878826 0.811020 4.176762 101 99 100
0.879075 0.819651 4.179749 102 101 99
0.879793 0.807575 4.177149 103 102 100
0.844190 0.829741 4.007418 122 122 122
1.052874 0.747867 4.997541 102 101 99
0.879975 0.810776 4.176724 114 113 111
0.880708 0.816951 4.178506 101 100 98
0.881430 0.820090 4.181404 111 110 108
0.844877 0.826938 4.006905 106 106 106
1.130422 0.624613 5.358756 118 117 113
0.845587 0.825434 4.007381 110 108 109
0.882798 0.816718 4.178224 101 101 99
1.122849 0.655450 5.305270 99 95 92
1.042349 0.751585 4.921292 86 86 84
0.885528 0.815162 4.175816 100 100 98
1.130323 0.671560 5.323654 91 87 84
0.886651 0.812720 4.172447 91 91 91
1.045206 0.745689 4.916983 101 100 98
1.047310 0.740790 4.922897 89 89 89
0.914859 0.813321 4.300660 96 95 93
1.048610 0.742779 4.922084 96 95 91
1.049362 0.737463 4.921320 104 102 103
0.891142 0.817271 4.176197 96 95 93
0.891728 0.813069 4.173975 126 120 120
0.894672 0.812840 4.172021 106 106 104
1.042990 0.745955 4.858028 109 108 106
1.153299 0.730371 5.369455 99 98 96
0.896683 0.812656 4.171791 104 100 99
0.897864 0.817817 4.174397 113 112 110
1.210389 0.560567 5.626638 93 92 90
0.898103 0.815104 4.173114 103 102 100
1.056263 0.733288 4.906377 97 96 94
0.899104 0.821810 4.175831 95 93 94
0.894358 0.829471 4.153686 102 101 99
0.930422 0.836580 4.315064 110 106 105
1.044212 0.747114 4.838784 102 101 99
0.928860 0.828712 4.304937 98 97 95
0.931224 0.836759 4.313893 101 100 98
0.896126 0.827245 4.151085 110 108 109
0.897137 0.831748 4.148705 96 95 93
0.897010 0.834300 4.149014 126 125 123
0.899799 0.816793 4.160789 108 107 105
0.932715 0.827971 4.307506 99 98 96
1.107035 -0.202557 5.103796 91 91 89
0.869813 0.838174 4.008301 113 112 110
0.902341 0.827923 4.153336 93 93 91
0.870122 0.827341 3.997838 110 106 107
1.177247 0.728641 5.378824 106 105 101
0.914583 0.822444 4.176407 85 84 82
1.179039 0.710923 5.380853 83 82 80
1.054236 0.718582 4.810853 103 99 98
1.179313 0.730037 5.377379 101 100 98
1.179076 0.733312 5.376240 111 107 106
0.916752 0.832218 4.179439 98 96 97
1.170232 0.680461 5.334016 111 107 104
1.179956 0.727762 5.377382 103 102 100
0.918335 0.830415 4.179562 111 109 110
1.174003 0.675271 5.342007 101 97 94
0.917886 0.824625 4.174261 105 104 102
0.956655 0.834354 4.347451 113 112 110
1.051202 0.734740 4.774893 104 103 101
1.051235 0.744384 4.775672 119 118 114
1.052248 0.738627 4.777785 105 104 102
0.872280 0.921479 3.960427 110 108 109
0.914878 0.837015 4.150559 106 105 103
0.920950 0.829193 4.174577 116 115 113
1.171613 0.695235 5.304229 106 105 100
0.962699 0.801962 4.352927 102 101 99
0.929282 0.819339 4.187852 89 88 86
1.121485 0.723471 5.053620 114 110 107
1.160769 0.704850 5.227576 112 108 107
0.930407 0.821588 4.187845 105 104 102
1.260010 0.658230 5.666360 105 104 102
0.970156 0.805678 4.358905 98 96 97
0.977805 0.801476 4.391239 107 106 104
1.066089 0.746931 4.780645 114 113 111
0.971447 0.821224 4.355499 102 101 99
0.973403 0.831272 4.362343 93 91 92
0.971932 0.821081 4.354390 104 103 101
0.939853 0.819670 4.210420 106 105 103
0.972126 0.820474 4.353148 109 108 106
1.125457 0.710010 5.037994 105 101 100
1.144432 0.745753 5.121787 94 93 91
0.973811 0.821999 4.353457 105 104 102
0.972926 0.812892 4.348131 107 107 107
1.145604 0.719051 5.105092 117 113 110
1.175049 0.714999 5.231175 93 92 88
1.153529 0.749965 5.116463 104 103 99
0.983733 0.799714 4.339615 105 105 103
0.985082 0.798010 4.340846 106 105 103
0.984988 0.797460 4.339840 117 116 114
1.213461 0.711100 5.344304 103 102 100
1.201374 0.723742 5.286345 103 99 98
1.144167 0.711554 5.028912 106 105 103
1.159783 0.716952 5.096212 113 112 110
0.990844 0.795986 4.338476 105 103 104
1.245634 -0.621001 5.457935 87 87 85
0.991609 0.802362 4.338624 97 96 94
0.993252 0.800065 4.339746 93 92 90
0.949330 0.777201 4.146324 102 101 99
1.241466 0.666690 5.420384 123 122 117
0.994237 0.799834 4.338486 101 100 98
1.243220 0.666502 5.420133 118 117 112
1.001100 0.793580 4.332920 110 109 107
1.000601 0.798331 4.331607 116 115 113
0.984646 0.835498 4.251520 101 100 98
0.983553 0.823601 4.233557 103 102 100
0.994840 0.845010 4.266535 111 111 109
0.995898 0.843450 4.264339 110 109 107
1.414045 -0.964123 6.052051 98 97 95
1.405263 -0.912675 6.014980 103 103 103
1.014207 0.788100 4.338457 109 108 106
1.402245 -0.837192 5.996797 104 103 101
1.407100 -0.917712 6.014456 109 107 108
1.009163 0.795145 4.313833 113 111 112
1.010176 0.788805 4.313534 115 114 112
0.994036 0.831846 4.240819 105 104 102
1.011637 0.794147 4.310855 115 113 114
1.425754 -0.967154 6.070880 108 107 105
1.124696 0.737573 4.789222 107 106 104
1.017116 0.786773 4.331708 102 101 99
1.011866 0.787105 4.309637 92 91 89
0.995373 0.827224 4.238958 98 96 97
1.119249 0.745784 4.756842 94 93 91
1.003101 0.835427 4.262192 110 108 109
1.014273 0.813334 4.306487 104 100 101
1.409396 -0.826985 5.975008 92 91 89
1.324741 0.684672 5.611485 98 97 95
1.016887 0.793882 4.306859 102 101 99
1.470818 0.556422 6.226311 45 46 48
1.122152 0.740867 4.751812 101 100 98
1.469516 0.550047 6.220366 61 61 59
1.017528 0.815610 4.306091 112 111 109
1.469918 0.542705 6.215072 94 93 91
1.139487 0.741482 4.817594 104 100 99
1.473758 0.557631 6.229026 48 48 50
1.475201 0.567238 6.234576 53 57 60
1.460479 0.615616 6.171067 84 83 81
1.003029 0.824342 4.237974 114 110 109
1.140975 0.740985 4.817345 102 101 99
1.020440 0.787101 4.308844 98 97 95
1.477624 0.565981 6.225055 53 54 58
1.022224 0.799762 4.305110 88 86 87
1.004061 0.816195 4.228216 113 111 112
1.009702 0.838081 4.251808 96 94 95
1.013859 0.856604 4.257868 108 107 105
1.241506 0.738445 5.210517 102 101 99
1.137835 0.756336 4.772453 97 96 94
1.241312 0.713980 5.202799 108 107 105
1.144069 0.738584 4.795048 109 105 104
1.139919 0.751648 4.777268 107 103 102
1.037449 0.784831 4.348960 109 108 106
1.467834 0.694750 6.146756 106 102 101
1.261321 0.688167 5.281710 98 97 95
1.140173 0.755841 4.772913 107 106 104
1.118560 0.782637 4.681367 92 91 89
1.014887 0.840807 4.246968 110 109 107
1.470863 0.694809 6.152294 107 103 102
1.447174 0.693750 6.053677 104 100 99
1.015335 0.839086 4.247519 107 106 104
1.140909 0.748875 4.769634 105 104 102
1.140515 0.758193 4.769198 111 110 106
1.039621 0.791284 4.346637 96 94 95
1.013633 0.824489 4.236540 103 101 102
1.014510 0.832865 4.240825 121 119 120
1.119122 0.789165 4.676753 111 110 108
1.014765 0.835116 4.240519 104 102 103
1.547034 -1.293747 6.465908 94 94 92
1.138630 0.764649 4.756716 97 96 92
1.471459 0.694697 6.143074 110 106 105
1.041481 0.796546 4.347913 105 104 102
1.479645 0.663257 6.174876 84 83 81
1.479552 0.673742 6.173750 115 111 110
1.476028 0.682543 6.159616 129 124 121
1.139675 0.745322 4.756203 94 93 91
1.120608 0.788603 4.674489 109 107 108
1.012367 0.815123 4.223292 97 96 94
1.016624 0.831512 4.239704 88 87 85
1.481152 0.670587 6.172696 101 100 98
1.141116 0.752595 4.757081 104 103 101
1.043478 0.792542 4.347761 115 114 112
1.026739 0.801816 4.277770 115 111 110
1.022215 0.874857 4.259329 106 105 103
1.142039 0.749154 4.755893 103 102 100
1.140416 0.760188 4.750079 113 112 108
1.142419 0.745364 4.755378 110 109 107
1.027709 0.800194 4.277470 106 105 103
1.027479 0.802042 4.277440 94 93 91
1.015663 0.818387 4.227981 98 97 95
1.389246 0.691805 5.778048 104 100 99
1.015306 0.803092 4.222482 110 106 103
1.503010 -0.603031 6.249560 102 101 99
1.524906 -0.566400 6.340832 105 104 102
1.525076 -0.563582 6.342023 107 107 107
1.385795 0.685446 5.761690 103 102 100
1.509440 -0.578342 6.274848 106 104 105
1.526124 -0.559684 6.343323 100 98 99
1.046777 0.796192 4.348432 97 96 94
1.046481 0.798985 4.349227 111 110 108
1.504712 -0.607041 6.248629 106 104 105
1.136201 0.751578 4.717218 106 105 103
1.128770 0.784040 4.681687 87 83 82
1.013315 0.799151 4.201448 121 120 118
1.554400 -1.301888 6.449165 99 98 96
1.387996 0.694868 5.753692 107 106 104
1.567014 -1.282514 6.493875 90 89 87
1.137578 0.766045 4.710139 107 106 104
1.477112 -0.618838 6.116201 115 115 115
1.391218 0.687158 5.759361 96 94 95
1.561011 -1.320269 6.463605 94 94 92
1.561128 -1.316514 6.463448 113 112 110
1.509847 -0.604181 6.250218 89 88 86
1.394322 0.686241 5.764976 102 100 101
1.528461 -0.563185 6.320158 108 107 105
1.397747 -0.877628 5.777342 102 100 101
1.513614 -0.593878 6.254498 114 114 114
1.516671 -0.580037 6.267900 110 110 108
1.543658 -0.555144 6.381034 110 110 110
1.017264 0.801550 4.202965 104 103 101
1.481337 -0.616853 6.116897 102 102 100
1.139507 0.767348 4.703509 107 106 104
1.029031 0.856929 4.245600 117 116 114
1.150926 0.744662 4.745438 103 102 100
1.137069 0.786769 4.688575 106 105 103
1.559798 -1.156850 6.431736 102 101 99
1.030594 0.867896 4.245328 114 113 111
1.032072 0.864764 4.247948 106 105 103
1.573221 -1.240569 6.476505 106 105 103
1.561801 -1.155173 6.429434 104 103 101
1.513225 -0.601142 6.228984 98 96 97
1.158269 0.737128 4.766250 95 94 92
1.254865 0.742497 5.159237 113 107 109
1.019147 0.809725 4.189226 109 105 104
1.019448 0.813707 4.190169 98 97 95
1.143592 0.766795 4.696989 93 92 90
1.020233 0.812978 4.188997 98 97 95
1.507997 -0.613033 6.192461 99 98 96
1.140150 0.767877 4.681294 100 100 98
1.257603 0.745432 5.159513 98 97 95
1.519043 -0.597627 6.231101 96 94 95
1.148461 0.728899 4.710361 100 96 95
1.148934 0.731556 4.709360 107 103 102
1.146817 0.745640 4.700799 105 103 104
1.147929 0.743580 4.703763 118 114 115
1.066992 0.735970 4.370228 109 108 106
1.022822 0.816385 4.188425 107 103 100
1.037501 0.851591 4.246273 98 96 97
1.036774 0.856207 4.244463 117 116 114
1.592920 -1.253529 6.525161 98 97 95
1.590226 -1.234887 6.505484 95 95 93
1.144602 0.764183 4.678844 100 99 95
1.151922 0.730416 4.708156 100 96 95
1.149636 0.746957 4.698379 111 107 104
1.024756 0.816654 4.186612 95 94 90
1.038868 0.856799 4.243266 102 101 99
1.037960 0.858910 4.231260 109 108 106
1.063614 0.912483 4.335322 118 116 117
1.159069 0.745458 4.723698 99 98 96
1.271271 0.662271 5.170322 115 114 112
1.136321 0.775741 4.617236 107 106 104
1.136953 0.779611 4.617738 135 134 132
1.275160 0.724816 5.178613 112 108 105
1.136975 0.771070 4.615945 92 91 89
1.049197 0.792783 4.258191 109 108 106
1.138205 0.775784 4.616283 104 103 101
1.041162 0.794213 4.223363 107 107 105
1.159983 0.745254 4.702918 111 110 108
1.041993 0.792789 4.223949 108 107 105
1.145315 0.754761 4.633770 112 111 109
1.141012 0.780667 4.615762 99 98 96
1.032947 0.793973 4.178452 101 99 100
1.034593 0.810858 4.180934 109 105 102
1.603662 -1.221476 6.481660 100 100 98
1.603695 -1.220133 6.480308 100 100 98
1.079831 0.783346 4.361997 98 98 96
1.276343 0.715322 5.154565 94 93 91
1.052018 0.789222 4.248250 102 101 99
1.032163 0.821348 4.164401 113 112 110
1.035898 0.806498 4.177740 99 95 94
1.043857 0.792788 4.208262 125 124 122
1.040582 0.792568 4.193765 108 106 107
1.053600 0.790359 4.244687 111 110 108
1.611120 -1.238673 6.491964 89 88 86
1.171756 0.745560 4.715390 111 106 103
1.042513 0.793710 4.195819 116 114 115
1.045942 0.792343 4.208272 106 104 105
1.055166 0.788036 4.243210 119 118 116
1.043294 0.793804 4.195079 111 110 108
1.038576 0.810960 4.175433 108 104 103
1.044012 0.849217 4.196903 104 104 102
1.039212 0.809876 4.176733 98 97 95
1.172692 0.749320 4.711770 113 109 106
1.047984 0.789750 4.207333 106 105 103
1.041971 0.810125 4.176272 107 106 104
1.176374 0.745333 4.712958 106 105 103
1.177532 0.752421 4.717733 108 107 105
1.092606 0.778610 4.375519 111 110 108
1.029860 0.819634 4.124300 109 105 104
1.287088 0.719187 5.149426 96 95 93
1.049168 0.791508 4.195637 110 109 107
1.049622 0.799284 4.194430 115 114 112
1.162045 0.771905 4.628404 113 109 106
1.164439 0.732503 4.638159 114 113 111
1.165310 0.741551 4.637865 105 101 100
1.054397 0.794968 4.194283 110 109 107
1.164982 0.753781 4.632931 97 96 94
1.163688 0.772221 4.627784 110 106 103
1.092233 0.774506 4.344255 114 113 111
1.058048 0.786437 4.208215 107 106 104
1.054703 0.802398 4.194665 127 122 118
1.042185 0.966511 4.148112 118 116 117
1.062448 0.781521 4.224338 115 114 110
1.655345 0.277794 6.575399 98 98 96
1.164480 0.744108 4.626842 110 106 105
1.091565 0.768407 4.335048 115 114 112
1.055763 0.795849 4.193005 95 94 92
1.044067 0.970952 4.149494 115 113 114
1.164090 0.724874 4.616563 101 100 98
1.087700 0.789395 4.313720 113 111 112
1.069060 0.779079 4.239347 111 109 110
1.061700 0.784959 4.207390 110 109 107
1.066234 0.791471 4.201424 105 103 104
1.066537 0.792795 4.200445 105 101 100
1.101032 0.878332 4.335486 108 108 108
1.175456 0.730148 4.627834 99 98 96
1.063223 0.811789 4.186713 115 111 110
1.077986 0.775976 4.233333 121 117 116
1.071697 0.813240 4.205708 105 104 102
1.285050 0.696669 5.041341 108 107 103
1.184077 0.739364 4.641049 98 97 95
1.180560 0.728232 4.625525 110 109 107
1.072599 0.786440 4.199933 113 112 110
1.115062 0.886207 4.363253 104 102 103
1.071401 0.815935 4.190784 89 87 88
1.086590 0.780221 4.245675 104 103 101
1.075546 0.811723 4.202027 122 118 117
1.525220 -0.988680 5.941260 110 109 107
1.076304 0.815375 4.191827 109 108 106
1.186908 0.732622 4.620399 98 97 93
1.110279 0.786266 4.321734 108 104 101
1.185610 0.735661 4.608664 103 102 98
1.189118 0.729348 4.619858 96 95 93
1.116307 0.791318 4.337795 115 113 114
1.187187 0.739459 4.611299 107 106 104
1.190322 0.722218 4.619624 97 96 94
1.080129 0.830013 4.192944 107 106 104
1.532292 -0.985151 5.942143 106 105 103
1.082470 0.829814 4.193828 112 110 111
1.194049 0.725911 4.624040 112 111 109
1.088027 0.792933 4.212136 120 119 117
1.115258 0.785127 4.310488 114 110 109
1.279988 0.677416 4.947313 110 109 105
1.196020 0.722182 4.616518 102 101 97
1.196886 0.720637 4.615510 102 101 99
1.112393 0.770605 4.285043 122 121 119
1.706752 0.340775 6.569248 92 91 89
1.096084 0.826472 4.218123 107 106 104
1.707334 0.340008 6.569277 96 95 93
1.118537 0.781979 4.302763 114 110 109
1.118692 0.784641 4.303095 118 114 111
1.684257 -0.676125 6.475741 106 105 103
1.265361 0.660586 4.862638 121 116 113
1.200544 0.720168 4.612258 93 89 86
1.173127 0.749810 4.505703 112 108 105
1.102100 0.791278 4.232721 103 101 102
1.098038 0.791306 4.217376 114 114 112
1.742711 0.275217 6.690814 103 103 103
1.124088 0.785103 4.310786 106 105 103
1.124193 0.787078 4.311291 122 120 121
1.103626 0.777381 4.231022 119 118 116
1.126522 0.783394 4.310020 110 106 105
1.126634 0.786916 4.310755 118 116 117
1.722815 0.585975 6.584308 83 83 81
1.362520 0.634357 5.211173 104 100 97
1.127856 0.787019 4.309820 114 113 111
1.725569 0.603832 6.592437 52 53 57
1.735760 0.320773 6.621236 104 104 104
1.697563 0.629828 6.477750 95 91 88
1.700646 0.626306 6.484265 80 78 79
1.132026 0.782152 4.316280 126 125 121
1.727301 0.578804 6.585340 84 84 84
1.213489 0.765458 4.622191 156 155 153
1.720335 0.610812 6.552472 54 55 57
1.213925 0.759219 4.622651 119 115 114
1.702101 0.628697 6.478986 90 89 87
1.686807 0.649379 6.415596 106 102 99
1.215080 0.758893 4.620618 107 103 102
1.729248 0.591807 6.575681 46 46 46
1.215597 0.762175 4.619922 121 118 113
1.137138 0.782736 4.315289 105 103 104
1.726218 0.348439 6.550673 86 85 83
1.739145 0.589127 6.595535 51 51 49
1.230495 0.742159 4.664654 109 105 102
1.219279 0.727933 4.620411 104 100 97
1.736723 0.320415 6.579962 101 100 98
1.222752 0.716552 4.630018 101 100 98
1.220448 0.723798 4.621790 102 102 100
1.227306 0.746331 4.646445 117 116 112
1.722724 0.623949 6.520519 75 73 74
1.744121 0.585612 6.599341 98 97 95
1.223173 0.713475 4.628577 121 117 116
1.709358 0.630736 6.462179 94 93 89
1.743941 0.576823 6.588826 84 84 84
1.234040 0.743238 4.662490 131 127 124
1.226173 0.723418 4.627330 106 105 101
1.749428 0.587899 6.599736 72 70 71
1.756303 0.564146 6.621601 88 88 88
1.518975 0.683328 5.724535 111 107 106
1.228909 0.715583 4.628630 108 107 103
1.224364 0.714460 4.612112 111 110 106
1.231962 0.730892 4.635840 104 103 101
1.739712 0.292639 6.545005 85 85 85
1.232576 0.732423 4.636378 108 107 105
1.229026 0.761385 4.624094 110 106 103
1.738091 0.259919 6.536511 103 102 100
1.740883 0.289859 6.548257 102 102 102
1.520531 0.693423 5.717084 90 89 85
1.226161 0.715201 4.611075 103 102 100
1.743668 0.319772 6.554784 104 104 102
1.226949 0.715320 4.610229 107 103 102
1.743884 0.311327 6.550141 92 92 90
1.753103 0.593908 6.583856 54 54 56
1.571578 -1.173600 5.901925 96 96 96
1.750179 0.551581 6.570832 94 93 91
1.751190 0.576887 6.570183 88 88 86
1.751536 0.580180 6.572631 94 94 92
1.227698 0.717646 4.608108 121 117 116
1.740592 0.260731 6.520969 91 90 88
1.742298 0.298196 6.527428 99 99 99
1.752483 0.587337 6.564312 51 50 48
1.527291 0.693462 5.719985 116 112 111
1.748462 0.309740 6.547056 96 95 93
1.711246 0.641480 6.406794 118 113 110
1.740214 0.283916 6.512413 96 96 94
1.755060 0.577798 6.562613 78 77 75
1.752759 0.553392 6.551570 96 95 93
1.757901 0.591635 6.571481 42 42 42
1.713307 0.642388 6.403672 114 109 106
1.743766 0.269107 6.513157 96 96 94
1.744294 0.281866 6.514600 99 99 97
1.758214 0.584931 6.565909 72 71 69
1.758026 0.581731 6.563304 94 93 91
1.239428 0.747279 4.628058 81 80 78
1.240016 0.750423 4.629805 85 84 82
1.754308 0.247224 6.546886 96 95 93
1.757781 0.577729 6.559758 93 92 90
1.241019 0.753733 4.630625 104 103 101
1.758393 0.575411 6.559700 90 88 89
1.759174 0.592118 6.561667 25 25 25
1.756153 0.250800 6.548019 95 94 92
1.760326 0.588854 6.562618 52 52 52
1.242101 0.742906 4.631190 117 113 110
1.761009 0.579990 6.562047 88 87 85
1.761529 0.584724 6.565657 79 79 79
1.241853 0.753362 4.629553 99 97 98
1.761670 0.571778 6.559885 96 94 95
1.242934 0.755853 4.628131 112 111 109
1.739157 0.529642 6.474232 100 99 97
1.755083 0.276731 6.529042 101 101 99
1.777471 0.619810 6.613728 57 61 62
1.534322 0.693724 5.707544 114 110 107
1.754451 0.268922 6.523178 96 96 96
1.756411 0.282637 6.532253 94 94 92
1.756045 0.628347 6.523320 71 71 69
1.760165 0.291783 6.531281 117 116 114
1.768959 0.592485 6.562437 36 38 37
1.537790 0.695062 5.705045 114 110 107
1.765283 0.271847 6.542996 95 95 95
1.770702 0.583742 6.564444 100 99 97
1.256238 0.753332 4.655819 113 109 108
1.762894 0.543749 6.531995 94 92 93
1.772522 0.577149 6.565538 100 98 99
1.757598 0.629319 6.511252 78 78 76
1.541209 0.693123 5.705783 120 115 112
1.773104 0.597815 6.563408 49 53 54
1.541149 0.694442 5.704720 107 103 100
1.767783 0.280746 6.541774 112 113 108
1.774514 0.582065 6.566327 109 108 106
1.257777 0.750118 4.652975 96 92 89
1.768386 0.317672 6.539375 94 94 92
1.775427 0.587796 6.566994 115 114 112
1.257786 0.756912 4.651969 104 100 97
1.773095 0.261978 6.553761 91 91 89
1.776317 0.580822 6.565343 101 100 98
1.776418 0.596195 6.565548 32 36 39
1.258750 0.746211 4.653118 98 97 95
1.771787 0.271347 6.548471 100 98 99
1.776781 0.593731 6.566401 38 39 41
1.778161 0.603511 6.570423 44 45 47
1.777592 0.576943 6.562874 107 106 104
1.260258 0.763070 4.652168 108 107 103
1.251495 0.767114 4.618227 118 114 111
1.774645 0.268760 6.545534 105 104 102
1.778728 0.576316 6.561625 99 99 97
1.779328 0.589712 6.565292 95 91 90
1.779472 0.600718 6.564981 54 55 57
1.775286 0.271645 6.545146 103 102 100
1.260695 0.745259 4.648587 124 120 119
1.260900 0.757203 4.649165 120 116 115
1.780357 0.574695 6.562558 95 95 95
1.261856 0.766993 4.650785 109 108 106
1.778172 0.305141 6.551397 96 96 94
1.778190 0.556171 6.549269 93 92 90
1.780909 0.561665 6.558150 92 90 91
1.782036 0.581947 6.562072 119 118 116
1.781695 0.594039 6.562618 49 50 54
1.262922 0.733694 4.649688 110 106 103
1.782364 0.597611 6.561860 49 50 52
1.770679 0.625573 6.516790 79 79 77
1.783345 0.578794 6.561459 87 87 87
1.783193 0.584090 6.562474 86 85 83
1.765194 0.644135 6.495104 119 118 116
1.779357 0.259240 6.546711 96 95 93
1.786400 0.596187 6.563877 47 48 52
1.787096 0.565354 6.564615 95 95 95
1.773090 0.636785 6.512183 118 115 110
1.784010 0.266496 6.552017 103 102 100
1.772751 0.642098 6.509562 123 118 114
1.787663 0.577659 6.561195 88 88 86
1.789299 0.742827 6.568509 104 101 96
1.789565 0.282656 6.565993 96 96 96
1.267207 0.766512 4.650198 116 113 108
1.785200 0.264046 6.547761 95 94 92
1.793977 0.577990 6.579394 102 101 99
1.775508 0.647559 6.511326 116 112 109
1.788642 0.269172 6.557117 106 105 103
1.268042 0.724525 4.648691 106 102 101
1.267514 0.743114 4.646074 104 103 99
1.792143 0.278231 6.561317 87 87 87
1.778602 0.620430 6.511662 65 65 65
1.792562 0.286962 6.559755 96 94 95
1.798343 0.340608 6.578497 96 98 95
1.784504 0.393162 6.529221 99 99 97
1.793306 0.595414 6.560367 29 30 32
1.794549 0.599635 6.564018 47 48 50
1.796073 0.564017 6.566937 109 109 107
1.792826 0.585202 6.555376 70 69 67
1.267030 0.747650 4.633874 88 87 85
1.796145 0.572880 6.563130 87 87 87
1.791936 0.582221 6.549865 79 76 71
1.792775 0.576821 6.549168 88 88 86
1.793350 0.586990 6.552865 57 56 54
1.787622 0.392975 6.527415 112 112 110
1.798512 0.598081 6.564987 42 43 47
1.796834 0.532047 6.550070 93 91 92
1.796735 0.571110 6.544785 92 91 89
1.802447 0.585231 6.565174 85 84 79
1.269662 0.738867 4.624446 105 104 102
1.798635 0.529522 6.545405 97 95 96
1.288154 0.719200 4.688232 102 101 99
1.271924 0.773615 4.629179 115 111 110
1.272073 0.774555 4.629727 115 111 110
1.798187 0.581024 6.541383 80 78 79
1.270406 0.738349 4.622276 122 121 119
1.273414 0.751950 4.632336 95 94 92
1.273909 0.763261 4.634410 113 109 108
1.806174 0.262236 6.567929 94 92 93
1.801796 0.600334 6.553692 37 41 42
1.802107 0.653427 6.550986 103 102 97
1.276495 0.768510 4.639439 112 111 107
1.285474 0.733760 4.668434 111 107 104
1.802522 0.571854 6.541325 90 89 87
1.278647 0.767871 4.639510 115 114 112
1.805916 0.602964 6.553235 55 55 57
1.806754 0.637057 6.554193 100 99 95
1.804151 0.610007 6.543623 56 57 59
1.805419 0.535757 6.543440 83 83 81
1.809588 0.626392 6.558775 77 77 77
1.802496 0.271545 6.530890 82 80 81
1.807328 0.562743 6.547637 91 91 89
1.802916 0.675981 6.530722 103 99 96
1.812343 0.262420 6.561565 102 101 99
1.802871 0.612541 6.527548 63 64 66
1.298307 0.734910 4.699718 108 104 103
1.274414 0.768404 4.611316 110 106 105
1.586818 0.698754 5.739142 119 118 114
1.808506 0.584043 6.538032 75 71 70
1.278061 0.738180 4.622468 106 102 101
1.275754 0.762601 4.611985 110 109 107
1.810948 0.542392 6.544703 96 96 94
1.815955 0.649360 6.563963 105 104 100
1.817538 0.661204 6.568391 101 97 94
1.587936 0.699087 5.739916 115 112 107
1.294842 0.720025 4.679191 105 104 102
1.290223 0.736076 4.663150 104 100 97
1.276161 0.763405 4.612166 108 104 103
1.275450 0.766947 4.609299 114 110 109
1.128942 0.857979 4.080066 118 114 113
1.128994 0.860851 4.080327 117 116 114
1.812277 0.570323 6.544125 72 72 70
1.814230 0.634343 6.551031 92 91 87
1.815764 0.640078 6.555285 121 118 113
1.818351 0.656007 6.565732 112 107 103
1.822930 0.309936 6.577571 90 90 88
1.810103 0.579785 6.533896 89 88 84
1.819303 0.648512 6.565069 106 102 101
1.821114 0.663460 6.571381 111 107 104
1.817992 0.666672 6.559700 98 97 95
1.361843 0.675044 4.914288 113 108 104
1.820141 0.654605 6.564677 96 91 88
1.240940 0.758787 4.474158 117 116 114
1.816099 0.560349 6.543379 92 92 92
1.812366 0.580014 6.531419 83 79 76
1.819579 0.632228 6.557814 96 94 95
1.811128 0.676903 6.525640 102 101 99
1.820663 0.637593 6.558788 95 94 92
1.281039 0.755298 4.614375 104 103 101
1.816220 0.573663 6.535877 75 74 72
1.822823 0.649474 6.560378 110 109 107
1.280907 0.746094 4.607555 109 108 106
1.125989 0.853829 4.052258 113 112 110
1.816854 0.663155 6.529115 94 93 91
1.819496 0.575009 6.535854 100 99 97
1.816346 0.248076 6.521508 94 94 92
1.819134 0.587107 6.532000 44 44 42
1.826188 0.547625 6.542255 89 89 87
1.823215 0.574149 6.530894 96 95 91
1.601633 0.694506 5.731649 107 106 102
1.260655 0.835005 4.511672 111 110 106
1.730916 0.669268 6.185139 93 89 86
1.303754 0.752878 4.658130 110 109 107
1.280946 0.955973 4.578460 114 113 111
1.818202 0.317506 6.495532 87 85 86
1.767811 0.661631 6.316644 107 106 104
1.287692 0.757548 4.599247 111 107 106
1.305145 0.746346 4.658724 101 100 98
1.836899 0.632248 6.554486 86 85 83
1.281811 0.956877 4.574148 117 116 112
1.849089 0.596868 6.591597 31 35 36
1.601761 0.702296 5.710922 101 97 96
1.298993 0.751236 4.626953 110 109 105
1.291911 0.758435 4.600405 105 104 100
1.841763 0.619740 6.550939 68 69 71
1.603943 0.693365 5.704573 101 97 94
1.323278 0.741796 4.701683 108 107 105
1.836904 0.568885 6.525685 100 98 99
1.846668 0.548030 6.552320 99 99 97
1.845701 0.638183 6.547490 94 93 91
1.846086 0.641011 6.549462 102 101 99
1.845925 0.630274 6.543276 81 79 80
1.302168 0.768739 4.615045 113 109 108
1.326523 0.741938 4.699850 113 109 106
1.311235 0.746920 4.644595 93 92 88
1.303471 0.761299 4.615802 114 113 109
1.838110 0.321171 6.506050 88 88 86
1.812533 0.291561 6.407134 98 98 96
1.841157 0.564218 6.500965 92 92 90
1.821514 0.304634 6.429087 95 93 94
1.831538 0.312587 6.461234 100 99 97
1.842498 0.563802 6.498941 99 99 97
1.390090 0.658448 4.904554 124 119 116
1.822114 0.286878 6.426159 97 96 94
1.855188 0.632129 6.541837 89 89 87
1.307695 0.769396 4.611660 122 118 117
1.310235 0.761853 4.612326 120 116 113
1.832099 0.245488 6.447172 108 107 105
1.310254 0.768421 4.611686 115 111 110
1.809446 0.276251 6.363820 90 89 87
1.833889 0.527112 6.451393 102 101 99
1.841169 0.350672 6.473257 97 97 97
1.851204 0.372132 6.509790 110 111 106
1.851512 0.377956 6.510620 100 100 100
1.333858 0.736335 4.689717 115 110 107
1.865197 0.423829 6.554396 89 89 87
1.312173 0.761026 4.611474 106 105 103
1.849436 0.342644 6.494752 113 112 110
1.312957 0.760820 4.611022 115 114 112
1.313004 0.762974 4.611178 111 110 108
1.335005 0.752821 4.686347 100 96 95
1.882496 0.602453 6.606218 33 33 33
1.862264 0.624326 6.534057 86 86 86
1.863161 0.637983 6.534860 102 100 101
1.832803 0.312614 6.424150 89 87 88
1.864097 0.628142 6.532495 71 73 72
1.837431 0.318840 6.434731 97 97 95
1.856773 0.374536 6.499797 93 92 90
1.865276 0.426981 6.530389 101 100 98
1.868876 0.648742 6.540213 92 91 89
1.857663 0.370886 6.496679 98 98 96
1.325473 0.757184 4.634353 106 105 103
1.329398 0.752762 4.645298 89 88 84
1.318060 0.760887 4.606247 111 107 106
1.315460 0.771891 4.597568 111 110 106
1.858736 0.371659 6.496566 103 102 100
1.869672 0.560198 6.530891 94 94 92
1.857806 0.349724 6.487194 98 98 96
1.857392 0.359387 6.487151 109 109 109
1.857985 0.360894 6.488836 98 98 98
1.870215 0.634704 6.531365 67 66 64
1.871287 0.650219 6.534856 108 107 105
1.350153 0.736575 4.714365 114 113 109
1.319081 0.759954 4.604724 117 113 110
1.872329 0.563980 6.533021 86 86 86
1.349832 0.736233 4.711278 113 109 106
1.843460 0.319824 6.429687 88 88 86
1.858709 0.351385 6.483425 110 110 108
1.873932 0.578111 6.535972 95 94 92
1.860167 0.350708 6.483545 102 102 100
1.861771 0.371962 6.489745 92 90 91
1.861208 0.374966 6.487820 91 89 90
1.875685 0.575404 6.538290 81 80 78
1.880620 0.640809 6.553083 103 102 98
1.318589 0.761104 4.596195 105 101 100
1.846469 0.293202 6.431895 99 98 94
1.876770 0.584309 6.539083 76 75 73
1.875819 0.590676 6.534809 55 55 57
1.872391 0.625970 6.522257 82 82 82
1.321372 0.760348 4.603786 117 113 110
1.863313 0.364188 6.489779 109 107 108
1.320116 0.767639 4.598332 109 105 102
1.845511 0.310922 6.424688 95 95 95
1.320192 0.762037 4.595198 105 104 100
1.864744 0.365270 6.489029 103 103 103
1.848617 0.292227 6.432092 99 98 96
1.848605 0.298424 6.429790 101 99 100
