ply
format ascii 1.0
element vertex 1186
property float x
property float y
property float z
property uchar red
property uchar green
property uchar blue
end_header
-2.278938 -1.118857 39.813820 71 71 71
-2.287318 -1.049433 39.952145 69 71 70
-2.287738 -1.000052 40.003437 62 64 63
-2.213039 -0.236679 38.673798 138 142 145
-2.190844 0.142900 38.279007 168 179 197
-2.191643 0.202946 38.273403 172 182 194
-2.190897 0.225217 38.274540 172 184 196
-2.169345 0.698781 37.934288 112 112 114
-2.161441 2.390015 37.775143 174 174 174
-2.171761 2.842324 37.965683 123 123 123
-2.198134 3.575334 38.417713 119 120 124
-2.205177 3.697184 38.568035 147 147 149
-2.326080 5.487421 40.598854 47 51 50
-2.132236 5.726956 37.240326 81 81 81
-2.284382 -1.038715 39.969185 56 56 56
-2.196457 -0.090427 38.488033 162 166 177
-2.185648 0.169046 38.274391 173 185 201
-2.188225 0.185463 38.280075 173 185 199
-2.163665 0.623798 37.917866 162 172 182
-2.159066 2.588439 37.848431 150 150 150
-2.165736 2.774306 37.930614 158 158 158
-2.167132 2.935061 37.982502 150 150 152
-2.173874 3.077202 38.040058 127 127 129
-2.204221 3.732534 38.606297 157 157 159
-2.302409 4.654315 40.380119 45 41 38
-2.308368 5.681301 40.405071 86 86 86
-2.269204 -1.139721 39.808483 70 72 71
-2.188650 0.033164 38.380726 133 138 144
-2.184158 0.071602 38.359886 116 121 125
-2.152192 2.363580 37.755844 136 134 135
-2.151958 2.422976 37.783821 135 135 135
-2.155300 2.495591 37.829197 119 119 119
-2.154486 2.613259 37.843018 138 138 138
-2.163764 2.855675 37.959511 107 107 109
-2.186736 3.504157 38.365456 188 189 193
-2.123546 5.758760 37.272923 78 78 78
-1.854630 7.111377 32.628380 87 87 87
-2.260972 -1.252332 39.750072 68 70 69
-2.264056 -1.212776 39.782627 74 74 74
-2.263982 -1.192191 39.787788 66 66 66
-2.187603 -0.148835 38.500885 120 126 126
-2.188241 -0.133303 38.490036 108 111 116
-2.184186 -0.032955 38.423862 140 141 145
-2.181149 0.098150 38.348629 101 108 116
-2.176587 0.231429 38.282692 175 185 195
-2.149585 2.564206 37.829052 138 138 138
-2.153244 2.697977 37.893818 125 125 125
-2.186529 3.661442 38.474125 167 166 171
-2.247116 -1.813363 39.527641 69 69 69
-2.186126 -0.123125 38.486256 138 148 150
-2.179581 0.018716 38.384476 103 104 109
-2.179561 0.073183 38.359779 116 123 129
-2.174044 0.146129 38.283958 166 178 192
-2.146331 2.501135 37.812878 107 107 107
-2.157167 3.022359 38.022453 82 82 84
-2.155304 3.061309 38.026676 120 120 120
-2.162795 3.135410 38.116150 154 154 156
-2.186726 -0.259579 38.638206 154 158 159
-2.179532 -0.148279 38.498535 107 113 113
-2.174914 0.001422 38.391174 128 131 138
-2.138073 2.457208 37.777859 182 182 180
-2.142521 2.563569 37.813488 147 147 147
-2.147781 2.780876 37.926876 139 139 139
-2.151432 2.949830 37.976757 120 120 122
-2.173697 3.524985 38.386227 189 192 197
-2.291110 4.746841 40.469650 48 47 45
-2.112882 5.887605 37.254234 89 89 89
-1.876217 6.359352 33.110867 95 95 95
-2.253177 -1.157994 39.814537 76 76 76
-2.174947 -0.109639 38.484241 125 132 138
-2.174839 -0.087835 38.470440 111 118 128
-2.144635 2.752318 37.914955 141 141 143
-2.143700 2.883355 37.961678 139 139 141
-2.143947 2.928138 37.967747 127 128 130
-2.169080 3.443814 38.345028 201 202 206
-2.171397 3.591792 38.424210 193 197 200
-2.103422 5.716789 37.244781 86 86 88
-2.107603 5.751481 37.254345 82 82 82
-2.105362 5.897210 37.245071 86 86 86
-2.170985 -0.099678 38.476696 84 91 97
-2.167653 -0.022980 38.411396 71 75 84
-2.164886 0.034332 38.372883 84 89 93
-2.161652 0.146099 38.284035 172 184 200
-2.133234 2.524406 37.801884 153 153 153
-2.137315 2.845811 37.935658 120 120 120
-2.171475 3.652474 38.462585 177 179 178
-2.177649 3.724218 38.599648 141 141 141
-2.176231 3.747281 38.615715 130 130 132
-2.180538 3.771004 38.635792 124 124 126
-1.998424 6.235992 35.460255 102 102 102
-1.999101 6.255769 35.476860 86 86 86
-2.235763 -1.309682 39.643631 67 69 68
-2.239438 -1.218950 39.775890 118 118 120
-2.174443 -0.211603 38.602894 112 118 130
-2.161204 0.043060 38.372501 125 130 136
-2.161039 0.081902 38.352283 136 139 148
-2.130386 2.667457 37.846378 119 119 121
-2.131463 2.727666 37.884762 132 132 132
-2.133269 2.785970 37.919018 145 143 144
-2.134329 2.816890 37.920891 151 151 151
-2.140985 3.026536 38.021114 131 131 131
-2.143933 3.202085 38.072258 162 163 165
-2.272455 4.648874 40.372627 44 43 39
-2.274125 4.758684 40.396736 55 55 53
-2.097330 5.753992 37.254646 95 94 92
-2.222034 -1.942882 39.528175 76 76 76
-2.223815 -1.390803 39.561104 79 79 79
-2.245626 -1.003986 39.956570 60 62 61
-2.157209 -0.001681 38.387386 127 133 145
-2.130618 2.909275 37.949432 146 146 148
-2.133909 3.090109 38.029453 141 141 143
-2.135002 3.174798 38.018520 125 124 129
-2.266014 4.833703 40.303272 78 78 78
-2.280737 5.502692 40.612972 50 54 57
-2.092168 5.826345 37.274967 95 95 95
-2.207634 -1.346906 39.378014 66 66 66
-2.227670 -1.277178 39.710426 69 70 72
-2.162344 -0.159483 38.511871 79 90 92
-2.157800 -0.138309 38.490364 116 127 133
-2.150952 0.108754 38.323963 152 163 181
-2.132239 2.981639 38.003860 141 141 143
-2.133153 3.054093 38.025215 104 104 106
-2.153485 3.517623 38.390282 185 189 192
-2.159715 3.698032 38.508362 118 118 120
-2.262499 4.702596 40.361565 39 39 37
-2.276636 5.625769 40.586475 78 78 80
-1.993558 6.195056 35.590313 120 118 119
-2.212307 -1.866105 39.537121 67 67 67
-2.236265 -1.019148 39.938812 66 68 67
-2.163126 -0.253020 38.643970 108 109 111
-2.162481 -0.234521 38.637260 96 100 111
-2.150461 -0.078469 38.445099 68 76 87
-2.149695 0.015231 38.379414 148 152 161
-2.128601 3.135028 38.023357 135 135 137
-2.150007 3.623506 38.441784 190 194 197
-2.211757 -1.797528 39.561646 79 79 79
-2.211503 -1.770655 39.561100 61 61 61
-2.185131 -0.565476 39.092205 189 189 191
-2.140996 0.058335 38.365021 131 136 140
-2.137156 0.143475 38.260906 176 185 200
-2.107470 2.552043 37.794365 127 127 129
-2.109529 2.662632 37.819870 132 132 132
-2.116941 2.809972 37.908524 146 144 145
-2.116065 2.847695 37.921474 133 133 133
-2.119150 2.890904 37.939541 139 139 141
-2.116899 2.926328 37.948082 99 100 102
-2.121235 3.084768 38.024227 148 148 150
-2.151905 3.735865 38.591354 132 133 137
-2.157808 3.793446 38.636757 147 147 149
-2.255874 4.689672 40.380760 47 46 44
-2.256198 4.769401 40.401630 45 44 42
-2.199229 -1.342851 39.384361 65 65 65
-2.215672 -1.234384 39.768299 64 70 70
-2.218315 -1.218073 39.780373 176 178 177
-2.216461 -1.191831 39.801819 58 62 61
-2.155064 -0.290684 38.647930 105 106 108
-2.151738 -0.204857 38.591904 123 132 139
-2.137757 0.005431 38.378372 89 99 109
-2.130141 0.164611 38.270615 174 184 194
-2.105687 2.574237 37.796570 126 126 128
-2.105792 2.578769 37.797646 129 129 129
-2.107839 2.708608 37.834789 142 142 142
-2.108233 2.731428 37.841793 124 124 124
-2.111979 2.905882 37.940742 109 109 111
-2.242142 4.888940 40.257874 64 64 64
-2.077640 5.759343 37.256855 102 102 102
-1.851655 6.401329 33.205097 85 85 85
-2.134882 -0.065883 38.421303 149 154 160
-2.096674 2.399846 37.754974 158 158 158
-2.100830 2.523100 37.787018 144 142 145
-2.099156 2.597531 37.801407 138 138 138
-2.099610 2.608955 37.805752 110 110 110
-2.102617 2.646665 37.811829 104 104 104
-2.110057 2.872109 37.935680 131 131 133
-2.138914 3.630230 38.444721 189 190 194
-2.140269 3.689601 38.490322 133 133 133
-2.243343 4.746979 40.391598 50 46 43
-2.240975 5.530433 40.339985 54 58 59
-2.243202 5.557749 40.312073 80 80 82
-2.197035 -1.945925 39.528351 73 73 73
-2.195496 -1.788337 39.554741 78 78 78
-2.217045 -1.063578 39.930481 62 62 62
-2.134284 -0.100200 38.470978 132 137 143
-2.124138 0.093402 38.301880 118 126 137
-2.122654 0.163041 38.231163 173 183 193
-2.145616 1.443280 38.636681 64 69 75
-2.093275 2.450839 37.763943 127 127 127
-2.097441 2.659939 37.812908 125 125 125
-2.097108 2.674772 37.816269 121 121 123
-2.108955 3.047927 38.018215 126 126 128
-2.136532 3.659366 38.469864 190 190 190
-2.142191 3.789087 38.634480 162 162 164
-2.191728 -1.805316 39.556995 72 72 72
-2.181690 -1.362063 39.397930 60 62 61
-2.202566 -1.205441 39.792477 151 151 151
-2.213558 -0.934601 39.978516 75 76 78
-2.165128 -0.603941 39.109814 145 149 158
-2.140438 -0.284418 38.640076 135 139 142
-2.118387 0.138088 38.238178 173 185 201
-2.091741 2.477369 37.764206 106 106 106
-2.096978 2.820683 37.891701 118 118 118
-2.098536 2.846091 37.902435 107 107 107
-2.105929 3.009344 38.014927 131 131 133
-2.105211 3.079822 38.024368 114 114 116
-2.104601 3.117203 38.023293 111 111 113
-2.125630 3.418264 38.339001 188 191 198
-2.131608 3.710680 38.525261 129 130 132
-2.133665 3.734987 38.559036 120 121 125
-2.148276 3.986576 38.817966 197 198 200
-2.232554 4.724482 40.398361 43 41 42
-2.233735 4.870979 40.344139 72 72 72
-2.235142 5.629486 40.363724 80 82 81
-2.180549 -1.895177 39.435196 77 77 77
-2.129922 -0.208394 38.566387 91 98 108
-2.119125 0.010731 38.353584 135 140 144
-2.113715 0.153956 38.237438 170 184 197
-2.088112 2.548195 37.790710 101 102 104
-2.122643 3.509375 38.382488 193 194 198
-2.227197 4.843519 40.332882 73 73 73
-2.196358 -2.727556 39.773388 40 40 38
-2.181169 -2.452509 39.569462 67 66 64
-2.186721 -1.404088 39.652657 65 67 66
-2.198092 -1.186637 39.809570 179 179 181
-2.197077 -1.170952 39.820934 177 177 177
-2.132488 -0.287748 38.638275 142 146 149
-2.132194 -0.239506 38.621891 112 112 114
-2.124296 -0.172780 38.518482 130 137 145
-2.121728 -0.131630 38.483521 130 135 138
-2.121531 -0.109243 38.473629 141 144 149
-2.113288 -0.021213 38.351120 128 131 136
-2.081552 2.558442 37.791672 108 108 110
-2.083209 2.736523 37.832584 117 115 116
-2.088418 2.753544 37.850574 104 104 104
-2.087448 2.864311 37.913834 125 125 125
-2.236996 4.518095 40.630512 46 42 39
-2.226639 4.746488 40.423939 49 45 42
-2.240893 5.447839 40.600475 53 54 58
-2.019323 5.895747 36.643711 79 79 79
-2.173868 -1.895627 39.434536 76 76 76
-2.198514 -1.560803 39.907806 68 68 68
-2.197175 -1.007121 39.959003 62 62 64
-2.079887 2.535490 37.774788 157 157 159
-2.077811 2.619719 37.806641 133 133 133
-2.086978 2.834516 37.894642 125 125 125
-2.089293 2.946599 37.944561 129 130 132
-2.222035 4.715177 40.418465 41 40 36
-2.047101 5.900440 37.235626 95 95 95
-2.018256 5.993381 36.683498 91 91 91
-2.140268 -0.523058 38.964581 130 131 133
-2.099880 0.121829 38.245075 165 179 192
-2.096203 0.653573 38.208969 164 173 182
-2.070969 2.426428 37.750496 87 87 87
-2.073120 2.501528 37.762821 122 122 124
-2.081600 2.795401 37.874569 94 94 96
-2.081330 2.883759 37.922466 102 103 105
-2.083925 2.974984 37.959827 145 145 147
-2.120757 3.782164 38.603123 161 162 166
-2.219255 5.659009 40.426453 89 89 89
-2.124866 5.641912 38.685658 87 87 87
-2.045168 5.722325 37.256409 103 103 103
-2.015563 5.938387 36.713795 72 72 72
-2.119889 -0.315726 38.658981 105 113 116
-2.100541 0.043114 38.324081 150 161 167
-2.069704 2.477665 37.755390 135 135 135
-2.072389 2.696620 37.815525 151 151 151
-2.078590 2.898045 37.921982 153 153 155
-2.081446 3.072894 38.001415 153 151 152
-2.082777 3.142118 38.012745 151 152 154
-2.220737 4.584069 40.555485 46 45 41
-2.220119 4.822996 40.474922 53 52 50
-2.044558 5.702693 37.269108 77 77 77
-2.040251 5.753067 37.261662 81 81 79
-2.164490 -2.446064 39.574551 51 49 50
-2.155773 -1.921010 39.434921 59 59 59
-2.065206 2.599089 37.798698 158 158 158
-2.073863 2.817594 37.884033 118 118 118
-2.075602 2.859123 37.908875 93 93 93
-2.076015 3.098055 38.006081 148 148 150
-2.067727 3.194080 37.866474 143 144 148
-2.159587 -2.459375 39.574120 53 53 53
-2.104675 -0.233087 38.589222 124 128 139
-2.059871 2.474267 37.752190 124 124 124
-2.063255 2.703118 37.813633 152 150 151
-2.069417 2.918257 37.925468 100 100 102
-2.208653 4.811865 40.439079 61 60 58
-2.154216 -1.996072 39.527969 74 74 74
-2.154632 -1.985581 39.520168 77 77 77
-2.172319 -1.596817 39.873024 77 79 78
-2.172562 -1.489037 39.908127 65 65 65
-2.101903 -0.187407 38.548027 146 151 157
-2.086917 0.052091 38.316296 154 159 162
-2.081537 0.144448 38.224270 177 187 199
-2.079082 0.685311 38.159035 99 102 107
-2.059937 2.754796 37.835449 89 87 88
-2.060716 2.776705 37.847637 128 126 127
-2.103998 3.794283 38.609318 122 121 126
-2.101392 3.823560 38.621330 144 146 145
-2.105409 3.842650 38.637810 162 162 164
-2.104058 3.849678 38.640537 166 166 168
-2.189520 4.912382 40.263653 65 65 65
-2.209943 5.443979 40.593460 52 56 59
-2.210951 5.515999 40.614765 46 51 55
-2.028605 5.718206 37.253605 95 95 95
-2.152760 -1.786325 39.555676 71 71 71
-2.171082 -1.503002 39.897289 64 64 64
-2.118721 -0.506772 38.944088 170 174 185
-2.096325 -0.271270 38.608421 173 174 176
-2.083663 -0.098593 38.396248 93 94 98
-2.064294 2.951948 37.946514 146 144 147
-2.204033 4.567088 40.559479 48 44 41
-2.190808 4.740703 40.351604 41 40 38
-2.024405 5.708763 37.257133 91 91 91
-2.146293 -1.760008 39.541542 81 83 82
-2.146490 -1.711681 39.540657 73 73 75
-2.159675 -1.209465 39.796505 179 184 188
-2.093127 -0.294305 38.620594 157 165 168
-2.077577 0.085691 38.272362 156 165 174
-2.049560 2.598389 37.795380 105 105 105
-2.050243 2.629352 37.805141 83 83 83
-2.053056 2.805883 37.864498 92 90 91
-2.056927 3.030165 37.976471 169 169 171
-2.059557 3.097074 37.999344 162 162 162
-2.062677 3.141237 38.005615 168 170 169
-2.106551 3.992851 38.842266 138 157 161
-2.198055 4.628198 40.514874 52 48 47
-2.201653 5.524526 40.594196 47 52 55
-2.198110 5.570033 40.571045 35 39 40
-2.020759 5.769319 37.253120 89 89 89
-2.142190 -1.791601 39.560425 70 70 70
-2.153369 -1.179998 39.823284 176 179 184
-2.121554 -0.644402 39.231716 164 171 181
-2.073877 -0.004746 38.336166 79 83 86
-2.075737 0.045291 38.316406 118 129 135
-2.045581 2.697273 37.814838 108 108 110
-2.048996 2.736505 37.825115 101 99 100
-2.049734 2.794226 37.855072 86 84 85
-2.048630 2.825292 37.862194 120 120 122
-2.082376 3.666041 38.523968 202 202 204
-2.083413 3.688204 38.475857 158 158 158
-2.100796 4.000276 38.846039 171 180 185
-2.182116 4.839063 40.319763 66 66 64
-2.125422 -2.117506 39.300835 77 79 78
-2.144235 -1.251850 39.735218 167 167 167
-2.089184 -0.320807 38.632763 141 146 149
-2.084252 -0.271988 38.597454 107 107 107
-2.074980 -0.100409 38.398338 87 88 92
-2.072510 0.886034 38.354626 121 126 132
-2.038013 2.521346 37.746956 173 173 175
-2.039812 2.559669 37.769890 101 101 103
-2.043380 2.650146 37.803703 136 136 136
-2.051825 3.240524 38.054600 180 189 198
-2.076320 3.721005 38.487381 130 130 132
-2.176383 4.868257 40.361168 78 78 78
-2.011431 5.719835 37.249462 94 94 94
-2.154700 -1.046780 39.949478 89 90 74
-2.082946 -0.297248 38.611965 83 97 100
-2.076685 -0.228850 38.570763 107 111 110
-2.066904 -0.028254 38.338593 65 66 68
-2.063974 0.078431 38.271469 158 164 176
-2.032045 2.383212 37.732372 148 146 147
-2.048606 3.106957 38.006466 73 76 81
-2.183956 5.535167 40.569214 41 46 49
-2.098271 -2.359344 38.963139 61 61 59
-2.141535 -1.201826 39.802612 178 181 186
-2.060632 0.002485 38.336460 99 100 102
-2.058354 0.108722 38.252968 71 88 104
-2.056736 0.761917 38.230595 57 57 57
-2.028742 2.466689 37.736912 123 123 123
-2.029836 2.579405 37.775108 130 130 132
-2.034379 2.717691 37.817837 150 150 150
-2.036512 2.896302 37.891544 156 156 158
-2.040408 3.001350 37.947983 113 113 115
-2.169400 4.710446 40.348232 52 47 43
-2.169656 4.758087 40.352837 41 40 38
-2.001207 5.892928 37.228783 79 79 79
-1.758114 6.758854 32.749519 89 89 89
-2.139840 -1.572430 39.906769 60 61 63
-2.072222 -0.229491 38.569733 127 129 126
-2.055417 0.064739 38.294636 101 112 116
-2.024267 2.455094 37.734650 141 141 141
-2.023057 2.485064 37.741043 98 98 98
-2.032399 2.816336 37.854610 140 140 140
-2.064462 3.716065 38.481274 134 134 136
-2.063908 3.744765 38.502312 141 142 144
-2.162767 4.777893 40.357647 49 48 44
-2.165090 4.865426 40.345764 80 78 79
-2.176248 5.459795 40.597256 38 42 45
-2.000299 5.912353 37.237888 76 76 76
-2.090563 -2.362567 38.966015 53 53 51
-2.113146 -1.888637 39.445377 71 71 71
-2.119669 -1.809031 39.547295 71 71 71
-2.084271 -0.546236 38.918423 181 181 181
-2.059691 -0.161394 38.424885 137 142 145
-2.052377 -0.044907 38.343426 70 74 77
-2.054476 -0.006090 38.333557 129 130 132
-2.043018 0.680450 38.175995 113 116 123
-2.021517 2.374999 37.740463 121 119 120
-2.023752 2.617575 37.789825 134 134 134
-2.023951 2.675301 37.801083 116 116 118
-2.030640 2.960552 37.916222 115 115 117
-2.033347 3.027143 37.944954 113 113 115
-2.114964 -1.788046 39.569420 76 76 76
-2.112932 -1.729094 39.524467 69 69 69
-2.136432 -1.467153 39.927406 72 72 72
-2.070695 -0.472367 38.749519 142 142 142
-2.060422 -0.212386 38.555809 110 111 115
-2.051942 -0.131473 38.415108 102 103 107
-2.050936 -0.023151 38.336689 141 142 144
-2.013811 2.401318 37.720329 188 188 188
-2.018260 2.548421 37.749416 134 134 134
-2.021628 2.862398 37.866959 114 114 116
-2.024964 2.928737 37.895214 137 137 139
-2.154862 4.776909 40.360889 42 41 37
-2.166606 5.481161 40.594654 50 54 57
-2.060388 -0.329985 38.611156 120 121 123
-2.056952 -0.318301 38.607643 94 99 102
-2.016171 2.627403 37.794308 152 152 154
-2.017000 2.910149 37.880203 156 156 158
-2.026123 3.166015 37.994244 143 143 145
-2.073973 4.165175 38.935375 203 203 203
-2.158767 4.538122 40.553131 55 54 50
-2.108990 -1.285172 39.662209 148 147 152
-2.059837 -0.511303 38.758030 151 170 176
-2.054376 -0.288668 38.593582 149 155 153
-2.052306 -0.235604 38.568523 123 124 126
-2.050732 -0.192857 38.532246 146 151 154
-2.038702 0.034164 38.319233 131 138 146
-2.010606 2.755952 37.829277 161 161 161
-2.011623 2.793076 37.840225 127 125 126
-2.021894 3.096928 37.974350 89 89 89
-2.050653 3.765359 38.526936 115 115 117
-2.050429 3.784843 38.561684 152 152 154
-2.142956 4.913538 40.301933 71 71 71
-2.117816 5.580159 39.835419 76 76 76
-2.058348 5.726748 38.662941 99 99 99
-2.097112 -1.957480 39.511486 73 73 73
-2.055666 -0.402100 38.723232 85 90 94
-2.053624 -0.372616 38.697975 111 115 118
-2.048735 -0.281444 38.588417 109 118 117
-2.031624 0.110811 38.249516 118 132 145
-2.004687 2.726919 37.820316 177 177 177
-2.004940 2.772469 37.831711 165 165 165
-2.006812 2.823222 37.842155 121 119 122
-2.015035 3.146836 37.989552 145 143 144
-2.047833 3.795675 38.563473 147 147 149
-1.977466 5.846831 37.266071 73 73 75
-2.092133 -1.893155 39.497719 76 76 76
-2.096139 -1.743149 39.556755 71 71 71
-2.116803 -1.043626 39.953674 154 154 152
-2.049055 -0.364982 38.665459 100 101 105
-2.033053 -0.085683 38.370258 82 86 89
-2.026442 0.083081 38.245743 145 152 162
-1.996430 2.454086 37.703876 120 120 120
-2.000328 2.647648 37.797504 153 153 153
-2.002400 2.753946 37.826687 166 166 166
-2.006380 2.931242 37.879837 143 144 146
-2.007856 3.012263 37.934952 141 141 143
-2.010302 3.074184 37.961685 111 111 111
-2.011062 3.159350 37.988865 138 138 140
-2.043577 3.830231 38.592014 140 140 142
-2.136752 4.782872 40.357620 43 42 38
-2.133552 4.927807 40.283691 64 64 64
-1.892972 6.302889 35.740341 72 72 72
-2.087466 -1.924320 39.491898 75 77 76
-2.049908 -0.497477 38.760960 170 175 181
-2.029780 -0.102266 38.382816 142 146 149
-2.024716 -0.001630 38.335350 111 116 122
-2.021379 0.726686 38.202232 106 107 112
-1.998427 2.881217 37.854710 119 120 124
-2.006420 3.114265 37.977768 107 125 139
-2.031870 3.750194 38.485245 107 107 107
-2.040759 3.840403 38.600670 114 114 116
-2.130250 4.793220 40.364933 43 43 41
-2.130737 4.805789 40.368767 59 60 55
-2.146750 5.530033 40.596645 35 39 40
-2.128350 5.601406 40.300171 84 85 87
-1.996898 0.593917 37.837284 163 177 188
-2.001398 0.619388 37.877483 173 183 192
-1.986689 2.411073 37.694214 129 129 131
-1.992999 2.813901 37.828899 143 141 142
-1.992962 2.848031 37.835339 146 147 149
-2.138232 4.572597 40.575455 52 52 50
-1.965218 5.734093 37.265137 84 84 84
-1.956623 5.903805 37.107510 93 93 95
-2.078663 -1.874905 39.491264 66 68 67
-2.083899 -1.754907 39.533520 72 74 71
-2.081185 -1.720821 39.538658 74 74 74
-2.037383 -0.424287 38.720181 77 88 92
-2.052518 1.006873 39.009468 74 75 79
-1.985365 2.590072 37.739471 154 156 153
-1.992934 2.922879 37.866974 111 112 114
-1.993654 3.001970 37.924286 144 144 146
-1.995581 3.022934 37.932217 170 170 170
-1.999064 3.208008 37.966022 177 184 194
-2.026088 3.717432 38.471302 166 162 163
-2.129457 4.477878 40.510738 186 171 148
-2.115235 4.852381 40.229717 62 62 62
-2.033072 -0.455658 38.742550 127 141 144
-2.025322 -0.226621 38.558456 137 140 145
-2.020304 -0.201694 38.511162 134 138 139
-2.054188 1.431625 39.121525 119 126 136
-1.978716 2.394125 37.690128 141 141 143
-1.979535 2.438681 37.696552 161 159 162
-1.977919 2.476970 37.700687 140 140 142
-1.985884 2.812195 37.811039 110 110 112
-1.986202 2.823377 37.815361 110 110 110
-1.986002 2.868727 37.838470 132 132 130
-1.986767 2.892766 37.855774 162 162 162
-2.128995 4.585316 40.577888 41 40 36
-2.073640 -1.853905 39.503979 72 74 71
-2.023543 -0.298271 38.598667 116 120 123
-2.011430 -0.098420 38.373592 115 118 123
-2.005743 0.059729 38.242901 123 128 132
-2.001684 0.173241 38.221664 172 180 193
-1.983906 0.633253 37.847279 168 178 188
-1.978312 2.653608 37.762321 160 160 160
-2.127295 4.534449 40.546532 45 42 35
-2.124742 4.556726 40.563190 49 46 37
-2.112404 4.759381 40.378323 108 110 107
-2.105229 4.978379 40.199802 59 59 61
-1.942548 5.809830 37.088009 87 87 87
-2.061799 -1.188194 39.442345 181 186 190
-2.016821 -0.339423 38.601105 126 124 127
-2.017216 -0.317482 38.596500 166 165 170
-1.998151 0.088560 38.230583 134 137 146
-1.995204 0.181489 38.184494 173 181 194
-1.972263 2.620651 37.744118 139 143 142
-1.983917 3.063145 37.942924 124 124 126
-2.114553 4.500104 40.525238 137 116 87
-2.091188 5.569542 39.982323 84 84 84
-1.945111 5.760392 37.252556 87 87 87
-1.940342 5.822167 37.097866 92 92 92
-1.940541 5.894886 37.115852 85 85 85
-2.055335 -1.986097 39.409241 75 75 75
-2.061643 -1.922729 39.485268 69 71 70
-2.060576 -1.896593 39.488899 74 76 75
-2.017548 -0.395565 38.702679 132 137 143
-2.000865 -0.150329 38.400188 142 147 151
-1.993957 0.117775 38.229538 120 133 152
-1.972345 0.547437 37.826172 168 178 190
-1.968419 2.527570 37.708843 167 167 167
-1.974906 2.945790 37.886383 101 101 103
-1.976593 2.961353 37.901352 104 104 106
-1.977869 3.015622 37.921227 106 106 108
-1.980528 3.095001 37.939701 108 110 109
-2.111948 5.544056 40.531654 37 41 42
-2.053501 -1.218256 39.438660 167 170 179
-1.969317 0.662637 37.835007 131 132 136
-1.962340 2.548087 37.712303 155 153 154
-1.966753 2.749034 37.773617 153 153 153
-1.967157 2.827419 37.816082 135 135 135
-2.003173 3.775831 38.495113 135 135 137
-2.103482 4.719867 40.429127 70 70 70
-2.101734 4.776257 40.361404 130 132 129
-2.079383 5.587643 39.952351 83 83 85
-1.930552 5.856229 37.123814 87 87 87
-2.047836 -1.963859 39.446621 81 81 81
-2.052742 -1.947232 39.473011 63 63 63
-2.053447 -1.745794 39.546337 75 75 75
-2.059191 -1.561065 39.613823 65 67 66
-2.004808 -0.357346 38.608627 131 135 138
-1.991871 -0.044029 38.321030 116 121 127
-1.985647 0.090575 38.217094 153 156 163
-1.958958 2.489626 37.703785 89 87 88
-1.959094 2.629544 37.730598 131 132 134
-1.959912 2.667181 37.749714 139 141 140
-2.008142 3.658954 38.688972 191 195 198
-1.997564 3.716212 38.464294 154 154 154
-2.089451 4.978936 40.197559 61 61 61
-2.047117 5.573652 39.450653 84 84 84
-2.011716 5.746870 38.677979 97 97 97
-1.925905 5.804503 37.094193 75 77 76
-2.046284 -1.876588 39.492756 67 67 67
-2.043208 -1.201117 39.430893 178 183 187
-2.008951 -0.457593 38.746517 98 103 107
-1.998044 -0.271609 38.572178 183 184 188
-1.963161 0.612314 37.896774 160 170 180
-1.957402 2.816063 37.810314 153 153 155
-1.961565 2.869523 37.838089 115 115 115
-1.967942 3.105775 37.950417 133 137 138
-1.994840 3.686653 38.536243 175 176 180
-2.099606 4.584218 40.572025 50 49 45
-1.931062 5.742798 37.265141 95 95 95
-1.976011 0.121223 38.219929 131 146 167
-1.953783 2.721396 37.767132 161 161 161
-1.953007 2.777331 37.790352 155 155 157
-1.957970 2.992095 37.890675 124 124 126
-2.079652 4.945807 40.227921 66 67 69
-2.091561 5.454969 40.500423 44 49 52
-2.082605 5.570662 40.280838 84 84 86
-1.993191 5.658312 38.588188 79 77 78
-1.922872 5.792319 37.168137 90 90 90
-1.997933 -0.502312 38.754631 128 143 150
-1.991500 -0.334255 38.595493 133 137 140
-1.982856 -0.194392 38.460526 118 122 125
-1.978489 -0.148880 38.381111 150 155 159
-1.975639 -0.041225 38.320053 121 126 132
-1.970224 0.012107 38.217018 140 144 153
-1.945182 2.598391 37.716877 157 157 157
-1.949286 2.850145 37.816936 169 169 171
-1.953550 2.946087 37.874908 126 126 128
-1.954259 3.025432 37.905739 176 176 178
-1.956998 3.108290 37.944447 131 135 138
-1.956222 3.147417 37.967236 164 164 164
-1.962391 3.207494 37.999420 132 135 140
-1.981974 3.695286 38.437595 187 187 189
-1.983217 3.774818 38.476284 144 144 146
-2.089016 5.528883 40.500942 37 43 43
-2.081847 5.557933 40.391090 45 50 53
-1.913522 5.888314 37.131454 84 84 84
-1.984447 -0.268290 38.574570 111 115 118
-1.965615 0.027217 38.213509 140 144 153
-1.966360 0.051628 38.204346 97 101 112
-1.969981 0.120759 38.221413 124 139 160
-1.968331 0.154039 38.201916 173 185 199
-1.938533 2.404686 37.687626 111 111 113
-1.938407 2.436779 37.693497 110 111 113
-1.942934 2.693082 37.757771 122 122 122
-1.946687 2.923038 37.854809 121 122 124
-2.084117 5.433334 40.509159 51 54 59
-2.083749 5.440042 40.500996 36 47 51
-2.025615 -2.283487 39.446198 45 45 45
-1.992469 -0.475055 38.745583 216 217 219
-1.982481 -0.324899 38.591656 154 155 159
-1.981264 -0.286268 38.580853 170 171 175
-1.970000 -0.116944 38.352032 126 129 134
-1.937005 2.476329 37.698547 81 80 78
-1.946178 2.958331 37.880646 135 135 137
-1.947239 3.006833 37.889950 143 143 145
-2.065806 4.964679 40.202198 46 46 48
-2.052288 5.547353 39.961761 64 64 64
-1.890423 7.138828 36.837997 94 94 94
-2.017061 -1.308594 39.408371 109 126 146
-1.982394 -0.414594 38.648464 90 103 111
-1.980315 -0.394362 38.635616 154 159 163
-1.960097 0.091065 38.210884 113 114 118
-1.935568 2.789000 37.794830 114 112 115
-1.944044 3.061107 37.918301 107 107 109
-1.977318 3.682470 38.538578 185 187 186
-1.996960 4.157790 38.958549 191 192 194
-2.060485 4.417883 40.280823 175 175 175
-2.077439 4.476028 40.498631 188 188 186
-2.015808 -1.294511 39.433361 100 122 136
-1.981388 -0.449365 38.728100 147 151 152
-1.973688 -0.337487 38.593502 188 186 189
-1.956768 0.052605 38.205379 116 123 133
-1.929526 2.507721 37.704906 103 107 106
-1.926970 2.559449 37.710812 89 93 94
-1.928272 2.620030 37.720680 100 100 98
-1.935423 2.995861 37.880211 113 113 113
-1.940612 3.234331 37.983894 191 196 202
-1.965897 3.750564 38.450813 134 132 133
-2.054142 4.986946 40.180439 53 53 53
-2.012193 -1.311015 39.393410 109 125 148
-1.975744 -0.508919 38.748409 122 141 148
-1.972840 -0.374688 38.623108 138 141 146
-1.967037 -0.299712 38.581894 130 141 147
-1.965802 -0.265076 38.514595 147 152 155
-1.951837 -0.055167 38.293114 142 145 152
-1.928694 0.665167 37.806892 144 148 149
-1.915586 2.163716 37.608532 151 152 154
-1.925067 2.531486 37.706684 103 108 104
-1.927221 2.829633 37.808418 130 130 130
-1.930051 2.975585 37.874752 139 139 139
-1.963132 3.815402 38.491535 94 95 99
-1.962567 3.846009 38.516613 146 148 147
-2.054443 4.833365 40.330730 92 101 106
-1.955692 -0.167170 38.408127 159 162 169
-1.946576 0.124073 38.233376 146 157 177
-1.924647 0.619376 37.828514 169 181 193
-1.963519 0.813371 38.602127 89 92 97
-1.985431 1.212150 38.987061 119 123 126
-1.915939 2.369839 37.661800 127 128 130
-1.919069 2.482600 37.698956 121 123 122
-1.925577 2.872220 37.825794 128 128 130
-1.926288 2.924404 37.850498 145 145 147
-1.935184 3.185793 37.982899 153 157 160
-2.043278 4.987575 40.182526 48 48 48
-2.062519 5.433307 40.507030 59 59 61
-2.009333 -2.306718 39.562363 56 56 54
-2.012085 -1.708580 39.556316 35 37 36
-2.010468 -1.696739 39.558075 48 50 49
-1.940592 -0.031045 38.253368 141 145 154
-1.940503 -0.002147 38.214691 134 141 149
-1.915947 2.638013 37.727795 141 141 141
-1.926595 3.026625 37.890472 117 117 119
-1.958232 3.870634 38.531548 128 129 131
-1.989690 -1.328045 39.200661 94 116 139
-1.961969 -0.505771 38.737492 150 157 163
-1.952572 -0.301057 38.569923 96 107 113
-1.915565 0.669432 37.820042 124 125 129
-1.909330 2.564169 37.713108 143 143 143
-1.913703 2.694152 37.757240 109 109 109
-1.914032 2.729179 37.771114 99 97 98
-1.917710 2.966803 37.863731 120 120 120
-2.034446 4.860898 40.157177 145 146 151
-1.683875 6.842144 33.429703 86 86 86
-1.997956 -2.311713 39.488113 59 59 59
-1.998990 -1.896848 39.493160 32 34 33
-1.954307 -0.367853 38.620380 214 212 217
-1.903456 2.370183 37.649418 152 152 154
-1.905703 2.443524 37.688709 157 157 159
-1.905313 2.537131 37.709362 181 181 179
-1.956124 3.626552 38.689960 186 187 191
-1.946951 3.785733 38.468815 151 151 153
-1.946076 3.839562 38.510597 152 153 155
-1.978424 -1.360311 39.188385 81 103 127
-1.975044 -1.298062 39.145149 85 110 130
-1.971104 0.999824 39.075283 91 91 91
-1.970632 1.083671 39.067764 96 100 109
-1.898647 2.342471 37.638218 157 155 156
-1.899869 2.584158 37.717289 92 92 92
-1.904841 2.661035 37.743355 148 148 148
-1.907676 2.775777 37.783722 171 171 171
-1.905684 2.851249 37.800423 170 170 172
-1.909092 2.908526 37.833508 164 164 166
-1.908468 3.065192 37.890366 137 137 137
-1.937178 3.724618 38.429062 159 159 161
-1.989802 -1.816048 39.539635 26 26 24
-1.993522 -1.708135 39.559223 18 18 18
-1.944925 -0.423011 38.655048 131 139 150
-1.932011 -0.166808 38.405613 123 126 131
-1.923044 0.025328 38.198242 112 114 126
-1.901542 0.567864 37.813091 168 178 188
-1.903795 0.589305 37.817318 163 173 185
-1.965695 1.056279 39.070080 126 127 129
-1.894098 2.209848 37.615250 102 103 107
-1.897153 2.512463 37.702621 137 137 137
-1.894475 2.619534 37.720634 100 98 99
-1.906149 3.021275 37.864498 152 152 154
-1.904240 3.092916 37.893536 136 137 139
-1.960773 4.193670 38.984257 190 190 190
-2.018233 4.863088 40.159477 125 125 127
-2.030675 5.176041 40.318802 4 25 26
-2.016470 5.558682 40.044796 74 75 79
-2.014119 5.576462 39.992611 70 70 72
-1.821693 6.284670 36.241589 84 84 84
-2.001965 -2.731268 39.850460 64 64 64
-1.984971 -1.896126 39.500343 29 31 30
-1.925207 -0.116955 38.323524 108 112 115
-1.921866 -0.078564 38.270885 107 114 120
-1.887758 2.160394 37.602589 112 113 115
-1.889081 2.221392 37.617695 88 91 96
-1.889313 2.367876 37.644062 124 124 126
-1.890988 2.496075 37.698170 104 104 104
-1.905669 3.158072 37.953987 143 143 145
-1.938461 3.652506 38.621731 184 185 189
-1.931593 3.758969 38.448341 141 141 143
-2.018185 4.950574 40.177071 54 66 78
-1.986643 -2.316423 39.571384 47 45 46
-1.979540 -1.957047 39.447472 64 64 64
-1.953983 -1.221770 39.026352 90 122 147
-1.925528 -0.225577 38.442406 141 142 146
-1.913529 0.044709 38.182262 91 98 106
-1.894546 0.611461 37.822399 165 179 192
-1.886468 2.337002 37.632431 128 130 129
-1.892998 2.890463 37.818344 141 140 145
-1.896245 2.936786 37.836948 134 134 136
-1.934698 3.642574 38.621353 185 189 192
-1.930963 3.900688 38.570560 90 90 92
-2.013283 4.926827 40.141506 77 90 98
-2.015508 4.991069 40.196651 80 85 91
-2.018319 5.245289 40.322693 9 15 13
-2.023443 5.332049 40.367729 14 14 14
-2.020416 5.539182 40.315041 46 51 54
-1.976704 -2.212024 39.532322 74 74 74
-1.957460 -1.335923 39.170097 105 127 148
-1.952423 -1.265821 39.083179 109 130 149
-1.930038 -0.356279 38.605583 190 191 193
-1.908964 0.098280 38.183624 107 117 127
-1.895544 0.381601 37.936138 174 188 199
-1.888781 2.791456 37.786995 125 125 127
-1.898397 3.173796 37.958706 144 145 147
-2.020535 5.488266 40.433903 33 34 36
-2.016495 5.509516 40.379921 20 28 31
-1.974763 -2.274216 39.563747 67 66 64
-1.970699 -1.447928 39.522572 36 45 50
-1.947973 -1.282607 39.095181 87 109 130
-1.930788 -0.504948 38.725067 185 192 198
-1.916409 -0.272911 38.457462 116 118 117
-1.915344 -0.174042 38.409306 160 165 169
-1.947404 1.024211 39.072815 112 117 123
-1.874333 2.146950 37.595661 129 130 132
-1.874238 2.164542 37.602177 138 139 143
-1.882156 2.875629 37.806534 154 154 156
-1.885713 2.929257 37.835243 146 146 148
-1.887608 3.037351 37.860748 129 129 131
-1.917425 3.814017 38.457577 121 122 124
-2.011611 5.131648 40.331566 13 17 20
-2.022385 5.418158 40.517639 44 45 49
-1.947528 -1.294884 39.099625 79 104 126
-1.919165 -0.358185 38.610634 215 216 220
-1.905067 -0.075019 38.262775 70 75 81
-1.902917 -0.051542 38.252522 145 152 160
-1.901467 0.008663 38.196472 145 152 162
-1.882673 0.716304 37.798439 81 82 86
-1.944060 0.998400 39.081486 114 114 114
-1.870070 2.210773 37.604149 97 98 102
-1.877837 2.705470 37.747696 149 149 151
-1.912876 3.799357 38.447071 121 122 124
-1.849221 5.915535 37.135521 84 84 84
-1.805671 6.527997 36.256039 92 92 92
-1.960157 -1.931180 39.465954 100 98 99
-1.912102 -0.313065 38.560078 143 148 152
-1.883315 0.368605 37.935013 175 189 200
-1.876198 0.704993 37.797031 107 110 117
-1.941120 1.059124 39.081459 84 92 95
-1.868001 2.359392 37.638748 112 112 112
-1.869815 2.484779 37.689987 158 158 158
-1.873185 2.734007 37.756371 137 137 139
-1.876231 2.771206 37.780613 108 109 111
-1.878922 2.925458 37.827953 142 142 144
-1.876912 2.969862 37.844101 94 94 94
-1.883341 3.120606 37.911304 143 143 143
-1.914298 5.664845 38.576344 85 85 85
-1.916209 5.690062 38.572239 88 88 88
-1.940885 -1.342733 39.171757 100 123 141
-1.902145 -0.192176 38.418583 140 143 148
-1.872581 0.526763 37.812222 170 180 190
-1.872327 0.546286 37.812935 168 178 188
-1.871666 0.645008 37.810101 162 169 179
-1.873434 0.697263 37.800323 89 92 97
-1.868249 2.545983 37.702965 150 148 149
-1.870920 2.813203 37.784977 126 125 130
-1.889347 3.256007 38.144451 175 182 190
-1.910102 3.648504 38.577263 189 193 196
-1.936563 -1.385003 39.185184 51 70 87
-1.936042 -1.360818 39.181679 65 90 112
-1.930109 -1.259794 39.042667 83 106 122
-1.906973 -0.335863 38.569168 132 133 137
-1.899968 -0.299818 38.478897 187 192 196
-1.899072 -0.231108 38.437279 117 118 120
-1.889515 -0.015031 38.222538 111 120 127
-1.886687 0.095754 38.173756 132 141 156
-1.867823 0.726651 37.808376 95 100 106
-1.862658 2.482167 37.684555 171 171 171
-1.868750 2.721150 37.746838 150 150 152
-1.868962 2.877961 37.801327 139 139 141
-1.883615 3.268955 38.139347 185 190 196
-1.895405 3.725967 38.395790 162 162 164
-1.904810 3.886299 38.561459 133 134 136
-1.981751 4.778037 40.085899 139 158 173
-1.951343 -1.818183 39.550919 20 22 21
-1.950758 -1.806203 39.555706 19 21 20
-1.930737 -1.400834 39.183647 103 112 127
-1.925158 -1.204446 39.025848 162 183 204
-1.884586 -0.059703 38.246262 73 82 99
-1.871480 0.331388 37.959408 177 189 203
-1.869127 0.488524 37.884346 165 177 189
-1.851339 2.202787 37.602211 161 161 163
-1.857072 2.676228 37.716053 164 164 166
-1.863078 2.848400 37.794140 132 133 135
-1.864815 3.043676 37.856419 136 136 138
-1.894639 3.775838 38.437000 140 140 142
-1.900046 3.919141 38.587070 116 116 118
-1.979874 5.545808 40.192482 58 62 65
-1.942141 -2.163013 39.513119 75 75 75
-1.893104 -0.274838 38.458305 169 171 170
-1.868865 0.381221 37.916176 172 186 199
-1.859556 0.650431 37.808334 174 183 192
-1.850097 2.429844 37.648922 94 95 97
-1.856956 2.834357 37.793594 139 139 139
-1.860481 3.077998 37.879997 144 144 146
-1.866960 3.191050 37.947189 120 124 133
-1.965865 4.795557 39.956135 166 182 195
-1.942824 -2.127251 39.596405 68 68 68
-1.941585 -1.696373 39.572098 15 17 16
-1.922247 -1.364682 39.160065 61 83 106
-1.919862 -1.289715 39.094257 68 93 113
-1.915864 -1.240621 39.023788 97 122 142
-1.914065 -1.155511 39.017792 207 210 215
-1.915004 0.913721 39.060043 103 106 113
-1.846364 2.401398 37.640774 84 84 86
-1.848236 2.506497 37.678844 163 163 163
-1.856503 2.797493 37.783775 132 133 135
-1.853455 2.997434 37.840878 135 136 138
-1.874924 3.566902 38.242271 172 175 180
-1.883995 3.786037 38.440830 137 137 139
-1.977880 5.212135 40.337120 13 17 16
-1.975755 5.274158 40.346218 15 16 18
-1.938303 -2.282154 39.577698 42 42 40
-1.941223 -2.220876 39.565205 61 61 61
-1.881377 -0.235454 38.436531 119 119 121
-1.867999 0.126817 38.135719 169 176 192
-1.849014 0.590749 37.818466 208 221 229
-1.853191 2.930685 37.821434 150 150 150
-1.889269 3.897761 38.580032 174 175 177
-1.957615 4.587834 40.009792 119 119 119
-1.933822 -2.139637 39.596455 68 68 68
-1.935464 -2.097240 39.578838 67 67 67
-1.909226 -1.191357 39.027378 129 150 169
-1.879093 -0.281799 38.461063 186 186 186
-1.835847 2.151387 37.588459 118 119 121
-1.840670 2.748201 37.728882 146 146 148
-1.845334 2.855838 37.800755 143 143 145
-1.872271 3.683491 38.330421 186 187 189
-1.874116 3.754149 38.429169 144 146 145
-1.955301 4.520906 40.009472 162 152 143
-1.950027 4.750689 39.906879 151 170 185
-1.947521 -2.725534 39.900932 82 82 82
-1.931546 -2.231196 39.571503 49 49 47
-1.931177 -1.734749 39.596329 15 17 16
-1.930282 -1.705871 39.598301 19 21 20
-1.905345 -1.310559 39.097233 78 105 126
-1.899887 -1.113081 38.946064 195 202 212
-1.877547 -0.336639 38.485081 170 171 175
-1.844905 0.377848 37.905815 177 187 197
-1.846353 0.426249 37.890980 172 184 196
-1.830838 2.167302 37.589458 110 111 113
-1.836254 2.704615 37.706650 125 125 125
-1.844436 2.992086 37.840084 121 122 124
-1.881311 3.916584 38.585812 124 125 129
-1.945011 4.797299 39.878754 157 175 189
-1.941106 4.876548 39.906673 156 157 161
-1.922066 5.619030 39.481731 85 85 85
-1.882545 5.664075 38.586258 84 84 86
-1.926862 -2.223706 39.575623 57 57 55
-1.905754 -1.344034 39.112328 67 94 115
-1.863821 -0.177686 38.364956 145 148 153
-1.861051 -0.099266 38.251202 102 101 106
-1.856171 -0.066024 38.224316 81 84 99
-1.854664 -0.009173 38.189449 115 119 118
-1.855273 0.050222 38.170959 138 148 158
-1.856682 0.089978 38.164963 133 145 161
-1.852290 0.133369 38.128422 168 177 192
-1.835275 0.705217 37.798576 71 78 86
-1.840241 0.734966 37.832188 81 86 90
-1.899682 1.063779 39.095592 150 157 165
-1.830967 2.468345 37.651707 122 122 124
-1.831232 2.553786 37.682499 145 145 147
-1.839097 3.027508 37.849609 138 138 140
-1.842831 3.199427 37.940983 138 150 162
-1.869398 3.784952 38.438843 139 140 142
-1.876112 3.942961 38.584240 129 130 135
-1.761534 6.536260 36.285686 94 94 94
-1.918018 -2.260974 39.507793 38 38 36
-1.917037 -2.193273 39.578434 53 53 53
-1.897433 -1.437267 39.128635 33 40 46
-1.900714 -0.800717 39.189438 218 221 226
-1.823732 2.438730 37.647762 104 106 105
-1.826924 2.530541 37.670635 139 139 141
-1.826660 2.620331 37.685184 136 136 138
-1.831946 2.855170 37.783970 157 157 159
-1.917621 4.395222 39.578228 165 165 165
-1.961372 5.402972 40.490406 17 17 19
-1.916534 -2.213063 39.587708 60 60 58
-1.914358 -2.178154 39.572659 67 67 67
-1.912332 -2.162578 39.549698 61 61 61
-1.888434 -1.249751 39.017235 85 110 130
-1.887378 -1.232928 39.018356 79 110 131
-1.862016 -0.311361 38.473370 122 130 133
-1.846571 0.056156 38.163010 146 154 165
-1.829885 0.428552 37.883472 171 179 190
-1.829404 0.657865 37.794167 160 168 179
-1.822872 2.425847 37.644184 116 117 119
-1.822148 2.659376 37.690685 123 124 126
-1.827355 2.897846 37.795998 152 153 155
-1.831860 3.047808 37.860172 102 102 104
-1.857315 3.729544 38.389099 160 160 162
-1.893067 5.921533 39.179066 100 100 100
-1.912075 -1.803485 39.578243 10 14 15
-1.891213 -1.461007 39.134895 2 13 17
-1.886517 -1.213247 39.017094 101 131 157
-1.881359 -1.200691 39.017189 109 140 168
-1.843915 -0.015808 38.190048 158 162 165
-1.842623 0.011024 38.175312 85 95 104
-1.824133 0.670223 37.779430 157 161 170
-1.887014 0.904593 39.067574 115 122 130
-1.917984 1.556704 39.755993 255 253 254
-1.812320 2.237405 37.590874 121 122 124
-1.813057 2.344899 37.613148 154 154 156
-1.818565 2.591412 37.673607 134 134 136
-1.820631 2.724981 37.704567 108 110 109
-1.821114 2.762326 37.711792 153 153 153
-1.828922 3.134381 37.894012 144 143 148
-1.844363 3.572791 38.231075 180 185 189
-1.845839 3.618092 38.239197 164 165 167
-1.847546 3.667521 38.301205 187 188 190
-1.857331 3.834204 38.450199 133 134 136
-1.868496 4.048981 38.741467 113 114 116
-1.922224 4.786222 39.864204 148 167 184
-1.861858 5.673671 38.596329 96 96 98
-1.788341 5.902795 37.091061 77 77 77
-1.907004 -2.195214 39.578785 62 62 62
-1.882967 -1.324996 39.100025 83 109 132
-1.879129 -1.272960 39.024872 62 91 109
-1.881327 -1.172987 39.014931 190 196 210
-1.858468 -0.378820 38.613377 208 218 227
-1.849515 -0.261216 38.381821 161 162 164
-1.847760 -0.248906 38.372124 160 161 165
-1.841649 -0.078896 38.240974 43 43 45
-1.883330 0.917388 39.073330 131 140 149
-1.815081 2.554358 37.671360 138 138 140
-1.816585 2.809733 37.742256 154 155 159
-1.820789 2.968294 37.829308 139 139 141
-1.822553 3.100759 37.883339 99 99 101
-1.918695 4.770056 39.851273 143 160 176
-1.921019 4.825826 39.890556 169 181 203
-1.918914 4.918438 39.923241 71 83 97
-1.933190 4.990487 40.145168 64 81 97
-1.943351 5.461571 40.379887 18 22 23
-1.790385 5.778181 37.161423 87 87 87
-1.744182 6.526849 36.287952 107 107 107
-1.847417 -0.315336 38.466286 119 122 127
-1.848964 -0.278645 38.447666 217 217 217
-1.832743 -0.048671 38.192867 140 147 153
-1.816022 0.520674 37.806221 164 176 188
-1.805388 2.359442 37.619007 143 143 145
-1.811883 2.672615 37.689011 107 108 112
-1.821281 3.176440 37.899796 112 116 127
-1.843301 3.768121 38.428162 113 114 116
-1.847916 3.804743 38.440208 113 114 118
-1.870172 -1.202517 39.015301 100 134 161
-1.829187 -0.020787 38.185299 140 143 148
-1.823328 0.160860 38.086559 174 184 196
-1.814818 0.391017 37.892624 171 181 190
-1.800171 2.189099 37.576309 74 75 77
-1.802877 2.474620 37.650826 133 133 135
-1.806886 2.616570 37.675755 150 150 150
-1.804296 2.689264 37.690922 148 148 150
-1.813987 3.138370 37.893482 156 156 158
-1.908985 4.789831 39.855972 152 169 187
-1.913618 4.939552 39.923347 68 86 100
-1.917958 5.546107 40.019398 48 62 63
-1.896413 -2.330669 39.612110 43 42 38
-1.830558 -0.159840 38.317482 116 121 125
-1.823518 0.087622 38.134514 112 123 141
-1.809767 0.611389 37.818077 154 166 180
-1.805550 0.717749 37.757210 104 113 122
-1.806285 0.749057 37.762924 156 158 171
-1.797255 2.405246 37.637901 161 161 163
-1.799408 2.594425 37.671928 144 144 144
-1.809411 2.969053 37.818874 158 158 160
-1.833963 3.714641 38.355164 167 169 168
-1.835453 3.801395 38.437565 116 117 121
-1.836846 3.891804 38.471348 161 162 164
-1.858969 4.173265 38.877079 165 165 167
-1.888372 -2.260839 39.593643 42 41 39
-1.887073 -2.176732 39.571999 49 49 49
-1.864049 -1.369744 39.065105 35 51 66
-1.863063 -1.205626 39.016315 100 136 162
-1.831681 -0.233977 38.352024 135 139 140
-1.830183 -0.218391 38.343060 109 113 116
-1.791807 2.246584 37.577641 150 151 153
-1.792323 2.277018 37.568420 105 105 107
-1.797802 2.860685 37.753044 160 159 164
-1.799536 2.907038 37.768322 161 162 166
-1.823741 3.609265 38.240982 189 190 194
-1.834664 3.846671 38.451103 98 99 103
-1.852260 4.139807 38.852345 165 165 167
-1.898511 4.676273 39.844181 171 171 173
-1.915658 5.101118 40.201626 19 29 39
-1.918256 5.170493 40.207516 17 18 20
-1.818863 -0.111156 38.256630 118 125 133
-1.817349 -0.039713 38.185909 103 106 113
-1.804461 0.343482 37.896912 169 179 191
-1.788381 2.290111 37.560299 140 139 144
-1.791893 2.451945 37.648716 128 128 130
-1.824158 3.705129 38.339611 157 157 159
-1.832054 3.938157 38.555397 118 119 121
-1.894460 4.580886 39.825977 111 107 104
-1.898269 4.877862 39.880554 140 143 150
-1.880348 -1.794368 39.647102 17 17 17
-1.849722 -1.303645 39.003368 77 98 117
-1.808921 0.112329 38.110970 172 179 195
-1.790091 0.691954 37.751045 156 161 167
-1.788594 2.532098 37.667709 119 119 121
-1.787927 2.677736 37.685738 113 114 116
-1.786932 2.692209 37.687660 173 173 175
-1.795418 3.089174 37.877773 138 139 141
-1.796265 3.121572 37.889854 148 149 151
-1.826212 3.878693 38.454956 128 129 131
-1.891172 4.827271 39.870869 174 193 207
-1.894696 4.897575 39.887585 117 123 135
-1.891617 4.950806 39.876217 71 86 105
-1.821116 -0.336013 38.466797 129 130 132
-1.820784 -0.313449 38.459366 137 140 145
-1.812613 -0.197634 38.322544 82 86 89
-1.812934 -0.108186 38.257362 131 138 146
-1.806265 -0.011268 38.183453 71 80 85
-1.808558 0.016424 38.172016 56 61 65
-1.790958 0.437254 37.855099 223 236 245
-1.782766 2.588816 37.673439 124 124 126
-1.779820 2.613792 37.672146 147 147 149
-1.782665 2.760607 37.708466 123 124 126
-1.785587 2.844161 37.746895 154 154 154
-1.815326 3.682677 38.309254 184 184 186
-1.820697 3.896391 38.466331 148 149 151
-1.885891 4.734740 39.862320 105 114 123
-1.901879 5.156561 40.180347 20 20 22
-1.910306 5.256193 40.344269 17 21 22
-1.903716 5.508329 40.204189 18 22 25
-1.717392 6.329532 36.295509 76 76 76
-1.868572 -2.389442 39.564785 49 48 46
-1.874103 -2.155958 39.626835 47 47 45
-1.870521 -1.750509 39.629513 5 7 6
-1.844581 -1.382807 39.020546 23 26 33
-1.845077 -1.353274 39.017235 52 78 105
-1.840578 -1.229923 38.923199 83 109 132
-1.840028 -1.170535 38.914745 178 187 204
-1.838615 -1.160808 38.901855 195 199 211
-1.805941 -0.063545 38.221840 80 84 96
-1.780819 0.624951 37.747753 154 164 173
-1.782749 0.653040 37.749153 129 139 149
-1.776105 2.390173 37.614067 165 165 167
-1.779360 2.629341 37.673626 113 113 115
-1.783435 2.808265 37.722710 152 153 157
-1.784021 2.907373 37.767380 160 159 164
-1.813566 3.773436 38.424206 136 136 138
-1.881159 4.543664 39.805088 145 139 139
-1.882165 4.696368 39.856529 188 182 186
-1.903736 5.212285 40.281986 15 16 18
-1.890088 5.532722 40.008904 10 30 37
-1.885940 5.567067 39.954823 68 72 73
-1.559409 5.985013 33.036240 101 101 101
-1.869438 -2.323051 39.622852 51 50 48
-1.800746 -0.023832 38.186943 83 84 86
-1.796797 0.082723 38.145573 121 132 150
-1.782700 0.536080 37.784832 164 174 186
-1.776177 2.706828 37.689194 93 93 95
-1.777211 2.756249 37.706429 121 122 124
-1.780430 2.957932 37.799683 156 157 159
-1.875185 4.602373 39.816696 120 119 117
-1.876871 4.785814 39.830627 150 168 188
-1.880874 4.838295 39.864815 149 167 181
-1.875520 4.986229 39.826519 66 76 88
-1.893317 5.180676 40.258499 12 13 15
-1.855987 -2.534622 39.426498 64 64 64
-1.859307 -2.440712 39.498817 49 48 46
-1.861836 -2.181729 39.596703 53 53 51
-1.865592 -2.104676 39.708324 69 69 69
-1.835250 -1.517250 39.016903 21 21 23
-1.828192 -1.162412 38.882210 188 196 209
-1.824675 -1.128984 38.829155 203 209 221
-1.808460 -0.384452 38.477818 220 227 233
-1.804022 -0.226365 38.347931 124 125 129
-1.798313 -0.002862 38.177181 82 92 101
-1.818082 1.009299 38.681816 130 134 143
-1.766348 2.167411 37.573250 80 79 84
-1.767409 2.256922 37.566490 121 122 124
-1.762915 2.290548 37.563492 104 103 108
-1.770818 2.728449 37.696369 88 89 91
-1.773824 2.839513 37.750534 164 165 167
-1.790082 3.561042 38.113499 181 186 189
-1.796527 3.675375 38.284813 185 185 187
-1.808290 3.905474 38.473442 112 113 117
-1.812207 3.987379 38.584316 133 133 135
-1.821732 4.074650 38.741169 135 135 135
-1.867652 4.441556 39.735168 166 166 166
-1.872804 4.823981 39.856369 129 155 168
-1.874430 4.870776 39.851265 97 100 115
-1.703803 6.261137 36.290436 78 76 77
-1.826220 -1.203534 38.904583 94 130 154
-1.793452 -0.051536 38.197506 148 151 160
-1.759343 1.998600 37.467194 168 169 171
-1.760350 2.206730 37.571220 75 75 77
-1.758856 2.271686 37.568142 139 137 138
-1.765607 2.469021 37.633713 144 146 145
-1.765913 2.568001 37.661674 129 130 132
-1.765077 2.650548 37.676868 184 184 184
-1.768980 2.769529 37.708317 162 163 167
-1.769214 2.827198 37.743683 154 155 157
-1.779798 3.249042 37.960964 181 185 188
-1.785274 3.540547 38.114719 183 187 190
-1.797376 3.740514 38.371838 170 170 172
-1.801985 3.788470 38.429291 123 124 126
-1.800022 3.801366 38.431644 119 120 122
-1.821968 4.130387 38.836102 127 128 130
-1.861756 4.473668 39.755943 151 150 148
-1.868098 4.646089 39.834034 106 115 132
-1.875856 5.501300 40.003761 22 23 25
-1.868557 5.598920 39.902340 87 87 89
-1.693058 6.084329 36.096077 75 75 73
-1.826985 -1.367845 39.003380 53 65 77
-1.798941 -0.325693 38.426720 96 96 98
-1.757648 2.363275 37.596107 134 135 137
-1.761406 2.645155 37.672192 149 149 149
-1.767332 2.961418 37.798859 156 157 159
-1.768491 2.992606 37.810570 141 142 146
-1.770024 3.054748 37.846104 135 135 137
-1.771321 3.152005 37.891747 119 119 121
-1.793193 3.711809 38.323376 162 166 167
-1.863656 4.521573 39.798401 138 138 136
-1.861304 4.774694 39.828773 157 173 189
-1.865513 4.948400 39.837456 69 87 109
-1.890283 5.324671 40.377220 22 23 25
